-0.0609166   0.434671   0.134234 -0.108213  0.836673  0.536906
 0.243648  -0.43644 0.0206713  0.600771 -0.798417 0.0400563
0.131517 0.420924 0.129376 0.208009 0.732791 0.647881
-0.142262  0.330137  0.187591 -0.0698882   0.231179   0.970398
  0.154154 -0.0485305   0.143611 -0.603363  0.242557  0.759684
-0.213997  0.406975  0.116166 -0.428124  0.638985  0.639068
-0.320702 -0.150286  -0.19252 -0.346079 -0.012882 -0.938117
 0.098319 -0.443434  0.125089  0.144892 -0.666557  0.731237
  0.365214     0.3421 -0.0124189  0.778158  0.568747 -0.266452
-0.266568 -0.350879 -0.140598 -0.424482  -0.58644 -0.689858
 0.0198368   0.481085 -0.0697633 0.0510542  0.917095 -0.395386
 0.268241   0.29136 -0.173295  0.261616  0.507193 -0.821165
0.384054 -0.10093 0.178697   0.53032 -0.131116  0.837597
0.116356 0.387304 0.172413 -0.0123047   0.510258   0.859933
 0.032316  0.472036 0.0818108 0.110504   0.9253 0.362778
  0.384209   0.294745 -0.0749151  0.783493  0.454575 -0.423675
 -0.15645 -0.098792  -0.16328  0.432862  0.226437 -0.872558
 0.156304 -0.366492 -0.176471  0.181026 -0.286872 -0.940709
 0.205718 -0.102638   0.18636 -0.219648   0.15883  0.962563
 0.35882 0.150949 0.181852  0.46116 0.255303 0.849795
 -0.205012 -0.0619681   0.183569  0.324442 0.0356096  0.945235
-0.0138718  -0.126934 -0.0984294 0.0314274  0.821122 -0.569887
   -0.1423   0.476646 -0.0326329 -0.616679  0.752885  0.229939
-0.240446  0.388547  0.127332 -0.43308 0.578247 0.691427
-0.213132 -0.375512  0.148615 -0.226124 -0.664543  0.712215
-0.287995 -0.195035 -0.195696 -0.242331 -0.109492 -0.963995
-0.0397593  -0.445213   0.127973 -0.0188813  -0.804385   0.593808
  0.31895 -0.335523  0.113629  0.440419 -0.573553  0.690702
 -0.438073   0.238486 -0.0157683  -0.861486   0.505795 -0.0448775
0.0323334 -0.393433 -0.176186  0.398821 -0.435594 -0.806969
 -0.18503 -0.445775 0.0801466 -0.293255 -0.871834   0.39231
 0.221272  0.162209 -0.198032 -0.0266135  0.0494793  -0.998421
 0.352481 0.0144352  0.192398   0.333371 -0.0251689    0.94246
0.117831 -0.35301 -0.18422  0.155407 -0.327876 -0.931851
-0.0878092 -0.0748989  0.0740023 0.696427 0.610054  0.37792
-0.450598  0.186927 0.0566799 -0.885407  0.437418  0.157225
-0.316018  0.157066 -0.193787 -0.384564 0.0181044 -0.922921
 -0.126187  0.0158932 -0.0936764  0.784963 -0.248086 -0.567703
-0.428882 0.0697351 -0.142097 -0.682144 0.0674138 -0.728103
  0.253421  -0.430874 0.00398627  0.441646 -0.891807 0.0981317
 0.157952 -0.171705  0.195356 -0.256986  0.143422  0.955714
 0.0975635  -0.021917 -0.0337916 -0.943563  0.249043 -0.218326
  0.359394  -0.350708 0.00191564    0.709084   -0.705098 -0.00605831
0.0670948 -0.362049  0.188031 0.0607051  -0.36089  0.930631
-0.132875  0.248946  0.200314 -0.0214824 0.00108187   0.999769
-0.146837 -0.444406  0.101647 -0.225344 -0.837567  0.497696
-0.479233  0.140616 0.0253439 -0.949784  0.304923 0.0702247
  0.347552 -0.0741633   0.192183  0.171638 -0.141323  0.974971
 0.366528 -0.249248  0.139035  0.605304 -0.345923  0.716899
-0.347583 -0.024972 -0.192515  -0.343375 -0.0445602  -0.938141
 -0.340198   0.344546 -0.0766865 -0.683536  0.710408 -0.167625
-0.278726  0.266536 -0.178015 -0.463572  0.208514 -0.861176
0.0585492 0.0936331 0.0718947 -0.583165 -0.673596  0.454079
-0.161579   0.42435  0.128284 -0.284083  0.722135  0.630728
  0.15763  0.122769 -0.174796  -0.32305 -0.532783 -0.782164
-0.301522 -0.349278  0.115524 -0.569559 -0.645717  0.508578
 -0.266603 -0.0621642   0.197979  0.0230503 -0.0374423   0.999033
-0.439811 0.0253678  0.141635  -0.718005 0.00689942   0.696004
-0.257366 0.0102649  0.193831   0.185014 -0.0627339   0.980731
0.419852 0.184153 0.118371 0.772301 0.402401 0.491553
-0.132106  0.310487 -0.191683  0.128192  0.208763 -0.969528
 0.19458 0.211997 0.200528 -0.000365138   0.00277445     0.999996
0.0689827  0.101097 0.0886082 -0.627795 -0.575103  0.524529
-0.136402 -0.470815 0.0635084 -0.479184 -0.793943  0.374215
0.167192 0.198686 0.199495  -0.11838 -0.121393   0.98552
 0.154711 0.0865234 -0.161163 -0.503841 -0.318438 -0.802958
 -0.123386   0.011702 -0.0916406  0.788911 -0.167663 -0.591192
 -0.45456  0.175651 0.0622844 -0.899024  0.384559  0.209452
-0.437867 -0.192381 0.0778102 -0.858289 -0.348615  0.376573
-0.0640755   0.164064  -0.157861  0.208995 -0.439878 -0.873401
-0.400856 0.0689303  0.171628 -0.448938 0.0914104  0.888875
 -0.217368 -0.0604615  -0.187616  0.322243 0.0158627 -0.946524
 0.152985 -0.116287 -0.167608 -0.432412  0.275755 -0.858475
 0.164748  0.284074 -0.197816 0.0248695 0.0856903 -0.996011
 -0.474767 -0.0541213  0.0912852 -0.931098 -0.268727   0.24666
-0.148801  0.450076 0.0958381 -0.327261   0.76129  0.559765
-0.109572  0.191163  -0.18317   0.328179 -0.0439344  -0.943593
 0.464704 0.0887544  0.104389 0.876426 0.172838 0.449448
-0.397901 -0.217391 -0.131459   -0.6043 -0.104126 -0.789924
-0.114689  0.315182  0.194994 -0.107857 -0.456302  0.883264
-0.399432  0.107205  0.160156 -0.475633  0.107742  0.873021
 -0.384404  -0.319234 0.00840395 -0.670102 -0.725736  0.155787
-0.145554 -0.219372   0.19582 0.0337798  0.231933  0.972145
 0.456442 0.0581898  0.120651  0.818795 0.0250656  0.573538
-0.339589  0.327635 -0.103372 -0.576187  0.730801 -0.365976
 -0.360287   0.349192 0.00605322  -0.835606   0.549009 -0.0187771
  0.47279  0.144792 0.0414336 0.859461 0.456607 0.229865
 0.105626  0.062207 0.0908628 -0.70961 -0.37228 0.598215
 0.149879  0.466399 0.0636182 0.345864 0.904369 0.249989
-0.00223876   -0.451315    0.131757 -0.0441687  -0.835593   0.547571
0.214322 0.372024 0.152235 0.418029 0.584223 0.695655
-0.00722993    0.153608    0.138738 0.0529222 -0.658608  0.750623
 -0.455871   -0.10499 -0.0997443 -0.844811 -0.196977 -0.497487
  0.35699 -0.104804  0.186972  0.203397 -0.162732  0.965478
-0.0509383    0.13891  -0.126504  0.150481 -0.770526 -0.619391
 0.191495  0.370167 -0.164647  0.269448  0.498759 -0.823794
 0.348562 -0.133343 -0.186832  0.360821 -0.139873 -0.922087
 0.100033  0.348791 -0.184491 0.0573798  0.373303 -0.925933
-0.203694 -0.359228  0.169048 -0.000719764    -0.453834     0.891086
  0.216913 -0.0721633    0.18283 -0.271394  0.148932  0.950876
  0.16557 0.0618827 -0.155632 -0.544976 -0.165478  -0.82196
 0.398782 -0.052288  0.170841    0.435297 -0.00344792     0.90028
-0.0372538  0.0918707 -0.0198105   0.332509  -0.938952 -0.0883594
 0.138993  0.350368 -0.187155 0.0678763  0.278447  -0.95805
-0.102265 -0.469029 0.0779359 -0.186114 -0.872557  0.451671
 0.186504 -0.429944  0.108169  0.108778 -0.805238  0.582889
-0.223757 -0.152577 -0.197709     0.109306 -0.000745539    -0.994008
  0.402132 -0.0042505   0.171263 0.470775 0.360092 0.805422
  -0.481841    0.131507 -0.00178299  -0.965867   0.253122 -0.0550545
 0.415835 -0.150619 -0.139529  0.715121 -0.320069 -0.621416
0.191154 0.397709 0.142026 0.408444 0.786137 0.463856
 0.243724 -0.226496  0.194709 0.00227759 -0.0829098   0.996554
 -0.127659 0.00372463  0.0911061    0.870549 -0.00948964     0.49199
-0.220891  0.362133  -0.15817 -0.418864  0.511304 -0.750414
-0.36181 0.147126 0.181237  -0.367869 -0.0540102   0.928308
  0.31622 -0.384527  0.019048  0.646482 -0.755796  0.104085
 -0.394852  -0.311532 -0.0249835 -0.784569 -0.603195 -0.143552
 -0.392863  -0.311772 -0.0144967 -0.764389 -0.644267 0.0250936
-0.0659462  -0.178369   0.171877 0.0976725  0.439902  0.892718
0.0239481 -0.198235 -0.172102 -0.0966572 -0.0353707  -0.994689
-0.0390222  -0.489378 -0.0694351 0.0973776 -0.910964 -0.400826
0.0926689  0.384509 -0.173909  0.141747  0.454204 -0.879549
-0.465972 0.0812321 0.0991512 -0.861126 0.0512531  0.505802
-0.268184  0.276815 -0.183963 -0.353046  0.263859 -0.897628
0.447041 0.104529 0.118025  0.887017 0.0764732  0.455359
-0.406183  0.291206 0.0466945 -0.760478  0.623331  0.182022
-0.0626963  -0.275828   0.198418 0.0675605 0.0189462  0.997535
-0.0931793   0.307244   0.197209  -0.39597 -0.125749  0.909613
-0.199498 -0.347351   0.16679 0.0345691 -0.365027  0.930355
 -0.481696  0.0933525 -0.0568754 -0.916408  0.308869 -0.254552
 0.170713 -0.372257  0.167169   0.586219 -0.0730468   0.806853
 0.0372414  0.0967376 -0.0538759   -0.1932 -0.959185 -0.206489
 -0.364996  -0.313809 -0.0898502 -0.613896 -0.682478  -0.39668
-0.265597 -0.181631  0.196695 -0.00918703   -0.082945    0.996512
 -0.21627 -0.133418  0.195882  0.305204 -0.274392  0.911899
   0.37615 -0.0421481  -0.182372  0.407307 -0.013469 -0.913192
  0.13203 0.0168799 0.0972009 -0.766955   0.08034  0.636652
-0.107852 -0.410022   0.15395 -0.245719   -0.3614  0.899451
 -0.110632  -0.488228 -0.0185808  -0.23144 -0.958761 -0.164964
-0.0270883   0.300277   0.199277    0.287661 -0.00572095    0.957715
0.0529116  -0.10169 0.0652429 -0.418837  0.797526  0.434197
 0.211156 -0.425928 -0.107704  0.430037 -0.823362 -0.370328
-0.409921  0.108851 -0.156603   -0.6683 0.0963974  -0.73762
 0.303808 -0.218433  0.187342 0.120391 -0.19786 0.972809
-0.0832911   0.239969   0.194828  0.121928 -0.619804  0.775227
 0.221092 -0.334275 -0.172573  0.167361   -0.4668 -0.868382
-0.0360138   0.466915  -0.094719 -0.292945  0.888913  -0.35216
 0.401227 -0.218777  0.131492  0.736169 -0.333717  0.588803
 0.247899 -0.429305 0.0325287  0.572354 -0.819373 0.0322251
0.219516 0.199379 0.200193 0.00837909  0.0105031    0.99991
 0.0570828   0.485769 -0.0654446 0.0783458  0.921602 -0.380146
  0.30538 -0.130631  0.196554  0.220947 -0.410373  0.884746
-0.433746  0.209415 0.0845789 -0.748783  0.541318   0.38249
  0.27074 -0.252211   0.18306     0.197 -0.222433  0.954838
0.302585 0.100939  0.20312 0.0791964 -0.107716  0.991022
-0.394208 -0.238836  -0.11831  -0.67879 -0.544481 -0.492732
 -0.331469 -0.0186119   0.196322 -0.0564249  0.0601796   0.996592
-0.0726863  -0.416762   0.151848 -0.125531 -0.613416   0.77972
-0.139894 -0.249414  0.200094 -0.00122604   0.0764405    0.997073
-0.043204  0.283388  0.204864  0.264272 -0.304484  0.915123
 0.279157 0.0839466  0.197854 -0.128491 0.0292747  0.991278
 0.421879 0.0658425   0.15166 0.673103 0.126197 0.728702
-0.0351134   0.461362  -0.113344 -0.255866  0.866935 -0.427733
 -0.175321  -0.462819 -0.0267929 -0.399191 -0.906643 -0.136547
 0.124181  0.120689 -0.155039 -0.438464 -0.573311 -0.692144
-0.144833 -0.417008 -0.142213  -0.26911 -0.310842 -0.911568
-0.021996 -0.494249 0.0244175 -0.00581817   -0.772256    0.635284
   0.500555   0.0158896 -0.00433641 0.979172 0.016673 0.202346
-0.0316429   0.203987   0.172364 0.138431 -0.43064 0.891844
-0.0578326   0.480989 -0.0718292 -0.00645146    0.874915   -0.484233
-0.163284  0.280478  0.199504 -0.0537003   0.110838   0.992387
0.0111691  0.167843  0.148222 -0.0740689  -0.590565   0.803583
-0.375547 -0.178689 -0.161774  -0.53875 -0.170535 -0.825025
  0.255136 -0.0428873   0.197323 -0.185463 0.0155355  0.982528
 0.368665 -0.206932 -0.157319  0.527471 -0.377611 -0.761041
-0.272149 0.0579584 -0.202896   0.23076  0.178815 -0.956439
-0.0822741   0.407327   0.161053 -0.0391348   0.486426   0.872845
0.0896859 -0.290519  -0.19405 0.00815176 0.00957789  -0.999921
 0.283016  0.412049 0.0220303 0.574727  0.79855 0.178902
0.035853  0.39026  0.17844 0.0247566   0.42547  0.904634
 0.347356 -0.337381 0.0766964  0.715794 -0.601777  0.354265
0.253771 0.265244 0.188272 0.321871 0.136853 0.936841
0.0268568 -0.496065 0.0198228  0.143122 -0.984544  0.100942
-0.409855  0.184668 -0.135992 -0.487829  0.369153 -0.791043
 -0.484026 -0.0321114  0.0635995 -0.898683 -0.298798  0.321074
  0.39817  0.279702 0.0690085 0.650383 0.652152 0.389485
-0.0264412  -0.278517  -0.202844 -0.00451638  0.00201071   -0.999988
 0.117962 -0.217225  0.190147 0.00283232   0.307614   0.951507
-0.329746 -0.127295 -0.187758  -0.436559 0.00852311  -0.899635
 -0.253474   0.403626 -0.0940053 -0.427381  0.772197 -0.470167
 0.365939 -0.294079 -0.102979   0.57682 -0.589537 -0.565442
-0.216663 -0.232256  0.197753 -0.0775024   -0.03763   0.996282
 0.236551 0.0510105 -0.195563 -0.705519 0.0580952 -0.706306
 -0.306781   0.353949 -0.0995025 -0.622759  0.540642 -0.565577
 0.310773 -0.305018  0.147243  0.517366 -0.550501  0.655196
-0.0575051  -0.120209   0.103502 0.120011 0.801142 0.586319
0.0102488  0.459141  0.127602 0.0481002  0.725846  0.686173
-0.181114  0.127544  0.184964   0.40351 -0.378201  0.833153
-0.199336  0.154516 -0.197974 -0.0187461 0.00375886  -0.999817
 0.286502 -0.029399 -0.197627 0.0413729 0.0361642 -0.998489
-0.332116  0.359332 0.0639379 -0.638128  0.728358  0.249574
-0.211697 -0.115661  0.192454 0.522674 0.425424   0.7388
 0.24519 0.434544 0.031917 0.424184 0.887574 0.179671
-0.349705  0.234572  0.158562 -0.486902  0.363389  0.794276
 0.176151 -0.361175 -0.167275  0.368438 -0.313268 -0.875281
-0.0176626   0.497366  0.0038138 -0.0125301   0.986004   0.166248
0.0451761  0.109406  0.078953 -0.334598 -0.790797  0.512528
 0.334892 -0.122328   0.19311  0.284106 -0.144767  0.947801
   0.487975 -0.00164441   0.0679491  0.957167 0.0342363  0.287506
-0.0348919  0.0948926  0.0130623  0.330106 -0.933386  0.140788
-0.200368  0.301855  0.188884 -0.203727  0.321382  0.924775
 -0.321747  -0.371566 -0.0522633 -0.518774 -0.796473 -0.310652
-0.364631 0.0954142  -0.18438  -0.234471 -0.0883212  -0.968103
 0.316657 -0.360716 -0.096568  0.614817 -0.667199 -0.420529
0.0748608  0.106874 -0.113402 -0.616938 -0.416092 -0.668023
 -0.266822 -0.0331662  -0.197122  0.340595 -0.238399 -0.909484
-0.399076  -0.28722 0.0566315 -0.730077 -0.593701  0.338387
  -0.352452      0.3469 -0.00731264 -0.957151  0.289534 0.0056053
 0.349678   0.13714 -0.182387 0.424301 0.105796 -0.89932
 0.465761  0.148707 0.0443283 0.901909 0.362022 0.235584
-0.267054  0.276285  0.183754 -0.261605  0.590054  0.763805
 -0.449441    0.21822 -0.0221719  -0.914395   0.400738 -0.0573596
  0.490698 -0.0753085 -0.0175819  0.990022 -0.133282 0.0457419
 -0.46273  0.150116 -0.080084 -0.865749  0.329786 -0.376456
 -0.385958 0.00113729  -0.174794  -0.482849 -0.0222624  -0.875421
-0.398871  0.203196  -0.12883 -0.689305  0.477985 -0.544416
  0.469584  0.0481689 -0.0984621  0.955606 0.0987452  -0.27761
0.0514892 -0.232841  0.194676   -0.317098 -0.00726945    0.948365
  0.20743 0.0584777 -0.176845 -0.314719 -0.103534 -0.943521
  0.404918 -0.0094164    0.17936 0.490999 0.374977 0.786329
 0.271352 -0.185873 -0.197116    0.01783 -0.0803212   -0.99661
 -0.24524 -0.124119  0.198632 -0.240828 -0.111264  0.964169
 -0.479605   -0.13033 -0.0279525 -0.967423 -0.194684 -0.161837
 -0.34523  0.342995 0.0538071 -0.644017  0.708604  0.288309
  -0.47634 -0.0187113 -0.0848058 -0.854978 -0.157599 -0.494141
  -0.32665 -0.0838443   0.193827 -0.600084 0.0349234  0.799174
0.0257065 -0.315182  0.199693  0.062826 -0.064708  0.995925
 0.233487 -0.389139  0.126365  0.468391 -0.648602  0.599938
 -0.41668 -0.150095   0.13507 -0.607467 -0.503181  0.614648
  -0.336627 -0.00445783   -0.197701  -0.291323 -0.0493558  -0.955351
-0.111169  -0.12411  0.148622 0.432778 0.431023 0.791784
 -0.180951 -0.0803523  -0.171867  0.496546  0.174604 -0.850268
  -0.47675 -0.0330974 -0.0829557 -0.854558 -0.121844 -0.504861
 -0.466726  0.0967472 -0.0913128 -0.884419  0.247038 -0.395949
0.310342 0.048726 0.194251 -0.00318783  -0.0294194    0.999562
-0.347802 0.0450699  0.197913  -0.17818 0.0332744  0.983435
 0.0788971  0.0613636 -0.0252141 -0.822101 -0.568769 0.0255259
-0.0723616  -0.485447 -0.0586841 -0.220018 -0.943459 -0.247944
  0.191153 -0.0210936   0.167367 -0.466291 0.0727225  0.881637
-0.102843 -0.253984 -0.200417 -0.00354357   0.0962273   -0.995353
-0.167236  0.256914    0.1966 -0.0284563  0.0659198   0.997419
  0.443499 -0.0426996  -0.134252   0.705501 -0.0824496  -0.703897
  0.423442 0.00721889  -0.152252  0.650505 0.0685976 -0.756398
  0.35738 -0.181005  -0.17151  0.396767 0.0297692 -0.917436
-0.278678 -0.301862 -0.164971 -0.351779 -0.401404 -0.845652
-0.0139394   0.345406   0.190552 0.0533044  0.206159  0.977066
-0.157353 0.0407629 -0.140055  0.695517 -0.154787 -0.701639
   0.182689 -0.00826501    0.156681  -0.597817 -0.0107582    0.80156
-0.146116 -0.342858  0.179934  -0.19705 -0.330741   0.92292
  0.171692 -0.0711347   0.163835 -0.510583 0.0518521  0.858264
 -0.10455 -0.420368  0.150348 -0.412149 -0.502989  0.759694
-0.00403982  -0.0972736   0.0225157 -0.161171  0.974883  0.153714
0.165964 0.140804 0.178962 -0.329947 -0.294114  0.897013
-0.349868  0.332263 0.0713197 -0.628063  0.696366  0.347292
-0.00678029   -0.292269   -0.200417 -0.0484287   0.508992  -0.859408
  0.386476  -0.298571 -0.0550722  0.626423  -0.76411 -0.154046
 -0.400409 0.00159245   0.174264 -0.463571  0.136442  0.875491
  0.483723  -0.016457 -0.0720916     0.964806 -0.000361184    -0.262964
-0.429878 -0.123525   0.13436 -0.497814 -0.547014  0.673021
-0.00720099    0.208025    0.171749 0.0367608 -0.395695  0.917646
-0.249891  -0.38142 -0.123352 -0.547029 -0.665523 -0.507778
 0.251298 -0.317128  0.174767  0.295632 -0.401299  0.866926
 0.427955  0.256499 -0.030899  0.780708  0.611751 -0.127499
0.203705 0.331833 0.176317 -0.0284958  0.0643248   0.997522
 0.341402  -0.24341 -0.158661  0.470832 -0.306792 -0.827161
 -0.127563 -0.0301028  -0.111286  0.766381  0.253799 -0.590124
-0.278874  0.230241 -0.189633 -0.272815  0.112409 -0.955477
0.00141364  -0.388543  -0.179702 -0.0534366  -0.426046  -0.903122
 -0.347015 -0.0913286   0.189284   -0.10481 -0.0182738   0.994324
-0.416022  0.266829 0.0258392 -0.768795  0.616153  0.171198
-0.132537  0.348896   0.18515 -0.118597  0.370169  0.921363
 0.131855 0.0974024 -0.148647 -0.642366  -0.25518 -0.722668
0.0369512 -0.116071 0.0938032 -0.227554  0.765857    0.6014
-0.143196  0.396787 -0.160731 -0.140115  0.603636 -0.784851
  0.38149 0.0559776  0.179379 0.491251 0.291117 0.820928
-0.204542 -0.406588  0.129969 -0.42772 -0.60632 0.670396
 -0.16913 -0.368695  0.170342  -0.24397 -0.367029  0.897646
  0.427414 -0.0365675   0.148975  0.446472 -0.523917  0.725378
 0.0365258  0.0895187 -0.0168646 -0.242751 -0.968145  0.061383
 0.256051 0.0839784  0.194441 -0.158946 -0.059586  0.985488
-0.334597 -0.227785 -0.165268 -0.424781 -0.278401 -0.861426
-0.0199349  -0.205151   0.169507 0.0024616  0.392544   0.91973
-0.109472 -0.375632 -0.173582 -0.192305 -0.511633 -0.837407
 -0.206947 0.00640226   0.173726 0.439769 0.258524 0.860098
-0.413918 0.0818494  0.156803 -0.544185  0.119257  0.830446
 0.101521 -0.251747  0.192624   0.14588 -0.203864  0.968069
 -0.197668 -0.0564825   0.178799  0.421055 0.0394308  0.906178
 -0.373981   -0.30155 -0.0885601 -0.760902 -0.562218 -0.323943
-0.0471644  -0.160957  -0.156202   0.23248  0.589204 -0.773817
 -0.125981 -0.0739543   0.128262 0.659897 0.397843 0.637383
 0.366023 0.0012101  0.190288    0.406153 -0.00976314    0.913753
0.0395462  0.362032 -0.189008 0.0741647  0.222673 -0.972068
-0.337252  0.293719  0.139758 -0.460548  0.470561  0.752641
0.0665284 -0.206673  0.181254 -0.153528   0.49282   0.85648
-0.406075 -0.022121   0.16906 -0.656362 -0.185119  0.731382
0.406274 0.197302 0.136615 0.660376 0.296616 0.689871
-0.355428  0.129387  0.178475 -0.331452 0.0723694  0.940692
 -0.246037   0.420801 -0.0495904 -0.550635  0.810968 -0.197818
-0.169488 -0.427248 -0.119388 -0.491708 -0.790275 -0.365635
 0.198371 -0.209639 -0.200478 0.0293137 0.0736958  -0.99685
0.255777 0.361768 0.142312 0.222732 0.483757 0.846387
 0.477591 0.0691435 0.0800898  0.923774 0.0781218  0.374885
 -0.114075 -0.0612199  0.0975925 0.753663 0.378945 0.537021
 0.333281  0.360836 0.0626193 0.650171 0.717338 0.250406
-0.0446736  -0.110134   -0.08832  0.034598  0.818242 -0.573832
 -0.484892 0.00636312 -0.0714043  -0.859073 -0.0094518  -0.511766
 0.392698 -0.289458 0.0559799  0.730796 -0.579444  0.360808
  0.496919 -0.0125476 -0.0302336   0.97291  0.133475 -0.188762
-0.299068 -0.328501 -0.141261  -0.53127 -0.513724 -0.673676
-0.0050822   0.495667  0.0164681 -0.0362543   0.995337  0.0893841
0.292854 0.253899 0.176929 0.299109  0.24068 0.923367
 0.188322 0.0415914  0.167002  -0.568254 -0.0133752   0.822745
 -0.131658 -0.0916896  -0.142924  0.548751   0.46406 -0.695357
   0.092996   0.0369266 -0.00313283  -0.980381  -0.184834 -0.0684823
-0.0530353   0.316471   0.195531 -0.198219  0.491556  0.847987
 -0.486188 -0.0540477 -0.0470837  -0.998113 0.00305832 -0.0613312
0.0752497  0.444385 -0.130482  0.215092  0.749162 -0.626491
-0.176351 0.0165355  0.155916    0.5459 0.0223973  0.837551
 -0.413551  -0.242465 -0.0724618 -0.728019 0.0903155 -0.679581
-0.229874  0.379627  0.138532 -0.387602  0.540373  0.746835
0.0464241   0.30132 -0.205456 0.0139048 0.0041335 -0.999895
 0.155093 -0.174603  0.190324 -0.288206  0.139675  0.947327
0.0778225  0.224331 -0.191691 -0.0991749   -0.29949  -0.948931
 -0.439717   0.228776 0.00666522  -0.869417   0.493234 -0.0288903
 0.275809 -0.210892 -0.197299  0.281183 -0.320146 -0.904678
-0.358049  0.180751 -0.172123 -0.429575   0.19652 -0.881388
-0.459855 -0.172046 -0.060105 -0.908485 -0.346592 -0.233516
-0.401939 -0.293012 0.0366394 -0.770508 -0.558636   0.30699
0.112266 0.242066 0.192663 -0.122877 -0.128387  0.984082
-0.407145  0.178317  -0.13416 -0.416709  0.105635 -0.902882
 0.0907038 -0.0668489    0.06188 -0.736859  0.542624  0.403235
-0.175894  0.223286 -0.200614 -0.0592656   0.175257  -0.982737
 0.388688  0.196425 -0.143309   0.57184  0.426913 -0.700531
0.0179802 -0.129127 -0.100955 -0.0658998    0.79888  -0.597869
-0.331819 0.0141307 -0.198761 -0.312605  0.285996 -0.905806
-0.324619 -0.335946  0.112738 -0.618969 -0.596547  0.510891
-0.0176162   -0.17064   0.151477 0.148862  0.64199 0.752123
0.0828515 -0.421671 -0.155789 -0.000372851    -0.458417    -0.888737
-0.275765 -0.134736 -0.200657  0.024172  -0.13128 -0.991051
 0.338584  0.308748 -0.118419  0.643133  0.575112 -0.505596
 0.419045  0.186388 -0.117891  0.727059  0.360405 -0.584375
 0.338401 -0.205452 -0.173971  0.330829 -0.292503 -0.897215
-0.200541  -0.21251 -0.198177 -0.0709307   0.125696   -0.98953
-0.361828 -0.244447 -0.148853 -0.517841 -0.312001 -0.796552
 0.350458  0.126948 -0.180998  0.407834   0.16985 -0.897119
0.301722 0.383238 0.066285 0.519409 0.813165 0.262634
 0.284614 -0.313628  -0.15875  0.351069 -0.286788 -0.891349
-0.107455  0.242716  0.196329   0.127741 -0.0503669   0.990528
-0.124865 -0.425937  0.141863 -0.280241  -0.59923  0.749926
  0.380192 -0.0775805  -0.174405   0.468007 -0.0615893  -0.881576
  0.36503  0.208462 -0.158142  0.582915  0.216686 -0.783107
  0.390468 -0.0140885   0.178566  0.132562 0.0715305   0.98859
-0.445847 -0.108249 -0.124582 -0.772057 -0.147649 -0.618165
 0.113549 -0.320545  0.194455 0.0900032 -0.207802  0.974022
 0.303394 -0.318569  0.143717  0.532671 -0.569511  0.626034
-0.263185   0.23173  0.195162 -0.0374172   0.176808   0.983534
-0.0206974   0.236794  -0.191264 0.0562452 0.0267766 -0.998058
  -0.16594 -0.0174948   0.143312   0.690856 -0.0934036   0.716934
-0.247602 -0.130513   0.19888 -0.136572 0.0144816  0.990524
-0.295122 -0.169709 -0.198022 -0.0410091  -0.137258  -0.989686
-0.426992  0.184582  0.111826 -0.764629  0.302241  0.569203
 0.35948 -0.10924 0.183918  0.237217 -0.201373  0.950356
 -0.124939  -0.472241 -0.0727831 -0.164405 -0.965016 -0.204242
 0.157336 0.0387339 -0.144891  -0.606608 -0.0889386  -0.790011
 0.330062 -0.166732 -0.187283  0.340002 -0.182201 -0.922606
    -0.4422 -0.00624567   -0.139806  -0.711157 -0.0717518  -0.699362
-0.209357 -0.444939 0.0580801 -0.377441 -0.880483  0.286858
  0.163128 -0.0963977   0.171562 -0.371886  0.406208  0.834683
-0.334475  0.364204  0.039111 -0.583945   0.73756  0.339136
 0.396643 -0.238408  0.113501  0.667247 -0.484508  0.565715
0.186962 0.123381 0.187766 -0.407771 -0.234165  0.882547
-0.395328 0.0223739  0.173844 -0.423541   0.15731  0.892114
-0.354191  0.157369 -0.177017 -0.273408  0.230347  -0.93391
 -0.459602 -0.0032781  -0.123119  -0.797235 -0.0585406  -0.600824
-0.435677  0.252441 0.0251028 -0.795904  0.580474  0.172007
 0.189817  0.339993 -0.168099   0.34573  0.732556 -0.586372
-0.187854  0.371779  0.162118 -0.373726  0.544792  0.750687
 -0.41777 0.0330187  0.157992 -0.605871  0.100939  0.789134
  0.431998 -0.0345998   0.148351  0.628533 -0.505312  0.591275
 0.194647 -0.438959 0.0835862  0.594113 -0.787541  0.163737
-0.496775  0.013675 0.0143525  -0.999492 -0.0109374 -0.0299349
-0.180502 -0.280994 -0.194521  -0.480955 -0.0479757  -0.875432
 0.392714 -0.289729 -0.074607  0.589159 -0.460083  -0.66424
-0.432905  0.190876 -0.106372 -0.727397  0.504889 -0.464737
 0.391249 -0.254227 -0.102508  0.688728 -0.515005 -0.510318
-0.353088 0.0175111  0.193167 -0.128805 0.0569091  0.990036
-0.198182 -0.020299 -0.176815  0.470928 0.0538858 -0.880524
-0.181909  -0.23743 -0.204373   0.100898 -0.0529124  -0.993489
-0.0680464    0.24112  -0.193837  0.160057  0.145886 -0.976268
 0.393533  0.303706 0.0146445  0.783495  0.613357 0.0996439
-0.252625  0.390663  0.109467 -0.436082  0.677702  0.592074
0.0864648  0.114166  0.116716 -0.452257 -0.586693  0.671755
 0.215651 -0.250182 -0.194652  0.186519  -0.17727 -0.966326
-0.0506279 -0.0878571  0.0224186 0.403729 0.881022 0.246582
  -0.188361    0.458909 0.000686581  -0.465642   0.884753 -0.0197367
  0.39674  0.277238 0.0751347 0.691194 0.641741 0.332294
-0.000527832    -0.337375    -0.193732 -0.296883 -0.406338 -0.864147
-0.0789639   -0.39788  -0.167058 -0.213523 -0.562338 -0.798864
0.014609 0.305598 0.194973  0.0752139 0.00590279    0.99715
 0.433321 -0.112804  0.136419  0.939326 0.0789618  0.333815
-0.441945  0.166673 0.0951628 -0.782735   0.23734  0.575323
  0.322876 -0.0486061  -0.197443  0.0985691 0.00363198  -0.995124
 0.196982 -0.113031 -0.188045 -0.260632  0.142016 -0.954936
-0.0652525   0.232725  -0.196751  0.164604  0.166523 -0.972202
  0.15328 0.0934248   0.15912 -0.410904 -0.246748  0.877652
 0.381348  -0.29477 0.0740091  0.716375 -0.600356  0.355498
-0.00616881   -0.109946   0.0720994 -0.0508687   0.955117   0.291827
 0.239386 -0.369053 -0.144249  0.165162 -0.594443 -0.786994
 0.282619 -0.136426  0.198523 -0.033948 -0.217018  0.975577
0.000710765   -0.107679  -0.0412424 -0.0359844   0.964847  -0.260338
  0.479979 -0.0578507  0.0637958  0.935299 -0.119815  0.332958
-0.299128  0.245491  0.179175 -0.469759  0.316924  0.823945
-0.458482 -0.180626 0.0581004 -0.893487 -0.312119  0.322898
  0.455293   0.209079 0.00286775  0.946439  0.321981 0.0241135
0.189354 0.264374 0.198015 0.0289732  0.136023  0.990282
0.0435909   0.40925  0.164215 0.100315 0.475148 0.874169
 0.122642 -0.444465  -0.11631  0.211734  -0.84381 -0.493107
0.312162 0.202905 0.187725 0.215748 0.434503 0.874448
-0.0307653   0.237586  -0.189476 -0.00754922  -0.0227574   -0.999713
 0.15501 0.305845 0.202354 0.128249 0.115434 0.985001
0.295874 0.219939 0.185028 0.217805 0.170592 0.960968
 0.189058  0.330288 -0.182379   0.120647 -0.0914287  -0.988476
 -0.235067   0.420983 -0.0769604 -0.389177  0.733232 -0.557595
  -0.407752 -0.00127436    0.169803 -0.690397 0.0329855  0.722678
0.183494 0.339307 0.179294 0.247515 0.685053 0.685156
 0.078877   0.45069 -0.118759  0.201484   0.81007 -0.550627
-0.109418  0.473124 0.0679107 -0.157861  0.964901  0.209872
-0.128091  0.187099  0.192809  0.245627 -0.235664  0.940282
  0.385863   0.316642 -0.0404142  0.776436  0.577617 -0.252004
-0.228846  0.401647 -0.116663 -0.352513  0.771242 -0.530019
0.193294 0.435933 0.100123 0.393651  0.81753 0.420337
-0.00333068   -0.168577   -0.148047 -0.496046  0.518536 -0.696461
 -0.404512  -0.285826 -0.0178318  -0.920267  -0.385373 -0.0677903
0.0105083   0.48716 0.0667389 0.0184204  0.983718  0.178774
-0.292102  -0.25935  0.172536 -0.385175 -0.189019  0.903279
  0.177434  -0.459289 -0.0331141  0.325724 -0.921947 -0.209566
 -0.11426  0.345321 -0.193354 -0.0352106   0.141501  -0.989312
 0.365869 0.0601598 -0.184829  0.468384 0.0408392 -0.882581
 0.348297 -0.180222  0.177876  0.305535 -0.298217  0.904276
-0.0015112  -0.162898  -0.148256  -0.57285  0.442594 -0.689893
  0.408642 -0.0847225   0.161526  0.581176 -0.105687  0.806886
0.420212 0.183836  0.12235 0.768976 0.335325 0.544273
0.122686 0.401881 0.161143 0.0397154  0.530749  0.846598
-0.413214  0.116295  0.155449 -0.552302 0.0982657  0.827833
 0.166118 -0.183752 -0.192147  0.104099  0.574531 -0.811836
-0.0379213    0.10238 -0.0597809  0.175973 -0.846644 -0.502223
  0.107267 -0.0789224  -0.108033 -0.636127    0.5487 -0.542468
 0.294575 0.0147128 -0.197601 -0.0358225 -0.0250463  -0.999044
 0.297839 -0.337834 -0.129979  0.541443 -0.523232 -0.658079
-0.112721  -0.48643 0.0413093 -0.157093  -0.96281  0.219814
0.397884  0.23131  0.11789 0.645854 0.465491 0.605137
  0.124609 -0.0667288  -0.124134 -0.640782  0.419407 -0.643037
-0.232404  0.235698  0.197736 -0.0849736   0.131458   0.987673
-0.198518  0.247635 -0.199195  0.116732  0.109016 -0.987162
-0.239044 -0.171635  0.200876 -0.0328782 -0.0550469   0.997942
 -0.355214  -0.344779 -0.0165503 -0.633331 -0.753527 -0.176324
0.407351  -0.1292  0.15334  0.354539 -0.190609  0.915407
-0.108247  0.301649  0.195492 -0.0470729     0.3943   0.917775
0.0168699 -0.196755 -0.169893 -0.0136768 -0.0528447  -0.998509
 0.346074  0.344693 0.0679748  0.68049 0.671976 0.292199
 0.287809 -0.175614  0.193716 0.0669987 -0.246173  0.966907
-0.0836617 -0.0612018 -0.0352344  0.776788  0.602439 -0.183488
-0.0909112  -0.165809  -0.172404  0.311485  0.351241 -0.882953
-0.0424889  -0.429104   0.151734 0.0877784 -0.703425  0.705329
   0.43536 -0.0928106   0.138168  0.640128 -0.146988  0.754076
-0.123418 -0.474319 0.0670763 -0.206818 -0.793648  0.572145
 0.451777 -0.200973 0.0484723  0.888956 -0.328149  0.319493
 -0.415266 0.00412793  -0.165801 -0.535922 -0.119827 -0.835721
-0.345835 -0.125691 -0.189271 -0.152155 -0.230025 -0.961217
  0.054831  -0.496962 -0.0321374 0.0901912 -0.976952  -0.19347
0.00400667   0.190358  -0.166866 0.0336583 -0.501834 -0.864309
0.0516273  0.206247 -0.176615 -0.00882523   -0.433184   -0.901263
 0.119014 -0.448051 -0.114695  0.220041 -0.810018 -0.543556
0.0939195 -0.417683 -0.153097  0.398404 -0.343496 -0.850462
  0.363766 -0.0839338   0.188576  0.313605 -0.102781  0.943975
-0.211843 -0.437874 0.0628126  -0.49983 -0.764961  0.406208
  0.430738 -0.0357633   0.149177 0.477087 -0.50971  0.71595
0.0472267 -0.110525 0.0826081 -0.304836  0.804633  0.509549
 0.405605 -0.232555   0.11018  0.763783 -0.402736   0.50442
-0.000898436    -0.411375     0.164291 0.00252665  -0.516858   0.856068
  0.273881   -0.39801 -0.0814438  0.584365 -0.711713 -0.389849
 0.127373 0.0662564 -0.125243  -0.508383 -0.0484834  -0.859765
 0.0945343 -0.0902015   0.109049 -0.572209    0.5112  0.641289
  0.403785  -0.271059 -0.0683749  0.873238 -0.181183 -0.452358
0.144261 0.342819 -0.18933 0.0323635  0.308254 -0.950753
 0.326962  0.347481 0.0886738 0.617995  0.64537 0.448977
 0.127553  0.332851 -0.187684  0.124528  0.336709 -0.933338
  0.10045 -0.215732 -0.193907 -0.045333  0.203547 -0.978015
 0.381559 -0.290631 0.0820849  0.703803 -0.596823  0.385311
0.0400549 -0.413396  0.160628  0.115145 -0.555117  0.823764
0.0232364 -0.373355  0.184352  0.054661 -0.315608  0.947314
 0.280082  0.320712 -0.151362  0.184933  0.568156 -0.801872
  0.246967  -0.429198 -0.0245485   0.405804  -0.912504 -0.0515663
 -0.488923 -0.0793405  0.0413589  -0.949482 -0.0640826   0.307208
-0.346893 -0.242902   0.15316 -0.488723 -0.326076  0.809212
0.110889 0.421801 0.154825 0.0965866  0.585679  0.804768
 -0.470192  -0.120998 -0.0739731 -0.925012 -0.183728 -0.332561
  0.383394   0.287621 -0.0868765  0.772497  0.502618 -0.388102
  -0.08824 -0.0437907 -0.0153539   0.893463   0.446407 -0.0494442
  -0.345827 -0.00609903   -0.191787  -0.402987 -0.0748749  -0.912138
-0.228759  0.189704 -0.197563  -0.040265 -0.0100313  -0.999139
-0.228328  0.346879  0.158953 -0.419031  0.547098  0.724636
-0.0888291  -0.052363 -0.0517118  0.806977  0.516222 -0.286885
 -0.468471 -0.0148576   0.108454 -0.896627 0.0490985  0.440056
-0.0607837   0.297302   0.201205   -0.52067 -0.0912216   0.848871
0.0336624 -0.133872  0.114275 -0.221877  0.738667  0.636507
 -0.124934 -0.0162112  0.0983553  0.835371 0.0532155  0.547105
  0.459571   0.173214 -0.0403216  0.940995  0.305258 -0.146101
-0.430485 -0.217905 0.0760429 -0.785224 -0.522078  0.332953
-0.314813 -0.298255  0.145426 -0.520507 -0.407864  0.750147
-0.286474 0.0922414  0.201969 0.00662362  -0.296908   0.954883
 0.085937 -0.242387 -0.196835 -0.0229499   0.170704  -0.985055
-0.00436642    0.446498    0.136838 0.038114 0.651197 0.757951
   0.25658  -0.422603 -0.0137902   0.441712  -0.897049 -0.0139106
-0.197672  0.143819 -0.192899 0.00444079  -0.302631  -0.953098
-0.344332  0.332201 0.0905888 -0.62358 0.647025 0.438755
0.0533805  0.140362  0.140504 -0.367715 -0.673244  0.641505
 0.279369 -0.333004  0.146001  0.337385 -0.572794  0.747046
0.0714481 0.0987709 0.0972346 -0.509933 -0.627036  0.588892
   0.100521    0.482547 -0.00144947   0.209345   0.976652 -0.0482188
-0.00890955   -0.446448    0.133852 -0.118274 -0.782758  0.610984
0.170001 0.288931 0.195126 0.0748513  0.157741  0.984639
   0.128599 -0.00731436   -0.110204 -0.826895 0.0630448 -0.558811
 -0.424036  -0.205413 -0.0933386 -0.794599 -0.335901 -0.505751
-0.312207 -0.202642  0.191165 -0.311528 -0.192111  0.930615
-0.264346 -0.168097  0.196443  -0.111106 0.00835542   0.993773
-0.213305  0.256233  0.202988 -0.0358098   0.105237   0.993802
-0.238014  0.393859  0.116999 -0.430414  0.655614  0.620415
-0.186921  0.337892 -0.178396 -0.0384447    0.42952  -0.902238
-0.0913373 -0.0495737  0.0381108 0.897421 0.331404 0.291216
 0.253374 -0.416295  0.068561  0.485274 -0.829718  0.275823
-0.426267   0.16261  0.122178 -0.777115  0.262999  0.571772
-0.0211763   0.146436  -0.126806  0.348081 -0.687798 -0.637003
 0.195863  0.465391 0.0125855 0.390719 0.878583 0.274645
 -0.465705    0.17179 0.00231729  -0.914685   0.403563 -0.0220846
 -0.494503 -0.0887689  0.0105943 -0.949648  -0.29737 0.0986856
 0.195475 0.0377086   0.17427  -0.410986 -0.0497916   0.910281
  0.487321 -0.0910286  -0.014358  0.992326 -0.123114  0.011485
 -0.256037 -0.0334483   0.194096  0.0341598 -0.0149481   0.999305
 0.340601 -0.236662  0.160661  0.528658 -0.288334  0.798364
 0.480342 0.0313679 -0.070687  0.924271  0.131449 -0.358392
     0.4996 -0.00710401   0.0189094  0.998575 0.0510337  0.015586
 0.331682  -0.37001 0.0320178  0.656333 -0.737239   0.16033
0.386675 0.222237 0.132177  0.63717 0.607456 0.474354
0.0136217 -0.270927  0.201226 0.0546805  0.109139  0.992521
-0.249307 -0.133007  0.199517 -0.0680089 -0.0686988   0.995317
-0.0785482   0.321249   0.197408 -0.0693564   0.104741   0.992078
 0.111108 -0.308621 -0.193831  0.174362 -0.126881 -0.976473
 -0.142029 -0.0690404   -0.13877  0.636971  0.229162 -0.736038
0.0643325 -0.475218 0.0841089  0.133861 -0.914996  0.380609
-0.256135 -0.311623 -0.175089 -0.287382 -0.368189 -0.884222
-0.044621 -0.488261 0.0726735 -0.0386976  -0.921493   0.386462
-0.419269  -0.13499  0.142077  -0.770859 -0.0110106   0.636911
0.310987 0.304688 0.145455 0.594595 0.644865 0.480215
 -0.258984  -0.406477 -0.0844473 -0.506008 -0.768905 -0.390822
 0.421197 -0.165394 -0.130623   0.631109 0.00366282  -0.775686
  0.100695 -0.0126729 -0.0149004  -0.983291   0.170255 -0.0644357
  -0.289917    0.405799 -0.00434475 -0.622656  0.781958 0.0290255
-0.238321  0.428788 0.0412929 -0.497016  0.829162  0.255862
0.0702305 -0.432874  0.143791  0.335641 -0.563214  0.755073
-0.393047  0.113641 -0.167876 -0.281844 0.0248086  -0.95914
  0.298293  -0.381213 -0.0685489  0.541341 -0.780719 -0.312135
0.0254864 -0.230763  0.189265 0.0202582  0.192714  0.981046
  0.206047   0.448987 -0.0572917  0.216938   0.86903 -0.444662
 0.140876 -0.126065 -0.167922 -0.265849  0.359681 -0.894402
  0.102458 -0.0897371  -0.111807 -0.589725  0.558058 -0.583777
 0.200143   0.20893 -0.200728 0.00110638 -0.0029322  -0.999995
  0.475946 -0.0300542 -0.0906215   0.84696 -0.326503 -0.419589
 0.217974 -0.286272 -0.189777  0.252015 -0.161599 -0.954135
0.142193 0.386041 0.166621 0.149822 0.480247 0.864243
   -0.23383    -0.43778 -0.00522433 -0.292821 -0.881685  0.369984
-0.0420604  -0.194285    0.17321 0.084863 0.407014 0.909471
-0.224749 -0.442498  0.026419 -0.537262 -0.794347 -0.283483
-0.224421 0.0220265 -0.186623    0.163422 -0.00122904   -0.986555
-0.307422  0.385647 0.0508025 -0.572036  0.788319  0.226557
0.200438 0.231452 0.196414   0.0237301 -0.00773244    0.999688
-0.211256 0.0633108  0.179058  0.410967 -0.131544   0.90211
 0.215531 -0.293115  0.189449  0.103118 -0.202835  0.973768
-0.0947481  0.0612279 -0.0716295  0.763196 -0.429042 -0.483172
 0.431595  -0.10574 -0.136947  0.670791  -0.21785 -0.708929
-0.234602  0.286604 -0.184212 -0.210161  0.402419 -0.891006
-0.300251 -0.300096  0.154909 -0.519282 -0.333765  0.786732
0.0132432 -0.350213  0.192823  0.110463 -0.313654   0.94309
0.399101 0.240036 0.102723  0.73562 0.496782 0.460512
0.205214 -0.21996 0.195493    0.11059 -0.0426934   0.992949
0.0699913  0.440024 -0.135449  0.214709   0.72214 -0.657582
0.0603678  -0.22262 -0.189846   -0.2468  0.277974 -0.928343
 -0.331878 -0.0917294  -0.194479 -0.266141 -0.212183 -0.940291
-0.333649   0.17223  0.182544 -0.249403  0.197307  0.948087
-0.173131 -0.418986 -0.130572 -0.454527 -0.663564 -0.594212
 -0.405638 -0.0124264  -0.170864 -0.512585 0.0797796 -0.854922
0.0241707 -0.419167 -0.154194 0.0060442 -0.706353 -0.707834
 0.369113 -0.194477  0.158999 0.482206    -0.31 0.819376
 0.456316 0.0474686 -0.121144  0.662347 0.0395079 -0.748155
 0.430721 0.0999861 -0.135934  0.750295  0.107259 -0.652344
-0.0413089  0.0973013  0.0526674  0.314083 -0.863021  0.395659
 0.253126 -0.171525  0.194213 -0.00578732   0.0532724    0.998563
 -0.418973 -0.0768987  -0.147636 -0.582622  -0.10942 -0.805344
 0.205403 -0.233695  -0.20245  0.103908 0.0522349 -0.993214
 0.494949 0.0727295   0.01933  0.981855  0.188255 0.0228345
 -0.31832  0.143546 -0.194274 -0.377482  0.132662 -0.916465
  0.467347   0.103332 -0.0891625  0.908183  0.125192 -0.399414
 0.378199 -0.231379 -0.137801  0.537598 -0.407853    -0.738
-0.399435 -0.290791 0.0402166 -0.757714 -0.570921  0.316099
 -0.483295  0.0274342 -0.0642201  -0.90288  0.170993 -0.394422
 0.112734 -0.431346  0.135869  0.110496 -0.733158  0.671022
0.216363 0.091795 0.187387 -0.193406 -0.142769  0.970676
  0.120417 -0.0241643 -0.0982316 -0.817058  0.147777 -0.557295
 -0.291865 -0.0363317   0.196733   0.0215533 -0.00785837    0.999737
  0.273862 -0.0327196  -0.199804 -0.0866347   0.111257  -0.990008
 -0.408699  -0.241284 -0.0925178  -0.82783 -0.274866 -0.489025
 0.400702 0.0449481 -0.168101   0.596046 -0.0641196  -0.800386
 0.413055 -0.249973 0.0718873  0.810875 -0.427571   0.39958
 -0.24581  0.226305 -0.196933 -0.135216 0.0500572 -0.989551
-0.392939 -0.203348  0.141548 -0.609094 -0.269462  0.745918
-0.268344 -0.364968 -0.125708 -0.455877 -0.701783 -0.547427
 0.229717 0.0496548 -0.186982 -0.366482  0.209415 -0.906552
  0.110902 -0.0159025  0.0688923 -0.898522   0.11252   0.42426
 0.377201  0.258532 -0.121437  0.716904  0.387084 -0.579841
0.0617898  0.174342  0.163508 -0.317361 -0.283219  0.905024
-0.0272827  -0.141515   0.119791 0.250167 0.736738 0.628199
  0.16792 -0.229359 -0.196762  -0.511716 -0.0405933  -0.858195
 0.318958 -0.301948  0.141986  0.486199 -0.558786  0.671839
0.148907 0.130067 0.171251 -0.359615  -0.40843  0.838965
0.0921855 -0.301868 -0.201326 -0.114281  0.106281 -0.987747
0.00293661   0.263721  -0.193023 -0.173872 -0.166716 -0.970554
0.0311134  0.314383  0.195258 -0.0123625 -0.0127612   0.999842
0.284133 -0.22201  0.18441  0.216817 -0.165401  0.962098
 0.453162  0.196512 0.0631009 0.869599  0.26853 0.414355
-0.0771582   0.335102   0.192071 -0.0611909    0.21861   0.973892
  0.401112  -0.289548 -0.0738933  0.614254  -0.36682 -0.698666
-0.460583 -0.144486 0.0724782 -0.914477 -0.163695  0.370048
 -0.173728 -0.0217213   0.152152   0.702903 -0.0937326   0.705083
0.0960586  0.403171 -0.159025   0.20546  0.587299 -0.782857
-0.418533 0.0197652 -0.158816   -0.615985 -0.00302642   -0.787752
-0.420904   0.20676 -0.106982 -0.715727  0.355862 -0.600913
-0.0801789  -0.447726   0.125556 -0.103283 -0.849412  0.517525
 0.313384 -0.198989 -0.183681  0.268951 -0.209673 -0.940054
-0.0791178   0.254536   0.198678 0.108027 0.367495  0.92373
 -0.215026   0.430143 -0.0776667 -0.312389  0.754061 -0.577759
0.142782 0.223037 0.198938 -0.236153 -0.118047  0.964519
0.205098 0.127623 0.194857 -0.220079 -0.171184  0.960344
 0.135305 0.0335212  0.113702 -0.795569 -0.200385  0.571766
 0.155503  0.108306 -0.164311 -0.398075 -0.406004 -0.822616
 -0.484397  -0.119135 0.00640871 -0.977976 -0.152579  0.142416
0.0956466  0.108023 -0.129936 -0.297781 -0.496463 -0.815384
-0.147111 0.0104785 -0.123766   0.797788 -0.0754541  -0.598198
-0.0843371   0.218826   0.185784  0.107153 -0.103657  0.988824
 0.158743  0.333588 -0.191396   0.14455  0.287637 -0.946769
-0.0556293  -0.288114   0.196167 -0.0659389   0.107345   0.992033
 -0.448915 -0.0267318   0.133709 -0.465541 -0.272672  0.841975
 0.222445  0.432213 0.0483908 0.369926 0.918445 0.140049
-0.175133  0.241188  -0.19785  -0.020689 -0.0420484  -0.998901
 -0.100574 -0.0330394  -0.055243  0.880913   0.35821 -0.309319
  0.337352  -0.363875 -0.0512379  0.629769 -0.716227 -0.300682
 -0.050617   0.102257 -0.0772684  0.480341 -0.867301 -0.130623
0.0310085  0.128912  0.110715 -0.128524 -0.745321  0.654201
 -0.28322 -0.361263  0.118902 -0.508743 -0.665599  0.546039
   0.19965 -0.0493839  -0.177657  -0.359819 -0.0256884  -0.932668
 0.438839 -0.196132 0.0791144  0.855616 -0.447753   0.25969
 0.103544 0.0378722 0.0673733 -0.872005 -0.238264  0.427595
 0.077119 -0.124847  0.126545 -0.391774  0.576413   0.71712
 0.26383 0.271138 0.182532 0.426737 0.147902   0.8922
0.454896  0.11995 0.102507 0.914974 0.208637 0.345389
0.0349212    0.4059 -0.164946 0.0671106  0.436334 -0.897279
-0.0798068  -0.463384  -0.102558 -0.185548 -0.734215  -0.65307
 0.359217  0.153874 -0.177624  0.412757 0.0791029   -0.9074
 0.408743 -0.203615  -0.12271  0.736584 -0.387876 -0.554073
 0.0966635 -0.0267042  0.0127194 -0.938005  0.336418 0.0834786
 0.425743 -0.152962   -0.1316  0.509403 -0.295948 -0.808037
0.369127  0.12169 0.172889  0.42434 0.171196 0.889172
0.182447 0.235001 0.199912   0.0305426 -0.00399014    0.999526
 0.428431 0.0357672  0.154287  0.696164 -0.263783  0.667663
-0.126295  0.237388  0.198015 -0.0608791 -0.0271631   0.997775
-0.212522 -0.154158  0.197806     0.2199 -0.0965347   0.970734
  0.481925 -0.0920071  0.0643308  0.913746 -0.192323  0.357884
 -0.100781 0.00368784 -0.0378817   0.965133 -0.0456831  -0.257744
-0.426524 0.0776407 -0.149018  -0.715338 -0.0385015  -0.697717
    0.501878 -0.000979933    0.0260602  0.998609 0.0507316 0.0143574
-0.274347 -0.171837  0.200891 -0.0156947   0.259392   0.965645
 0.268154   0.19608 -0.193481  0.156235 0.0525232 -0.986322
 -0.214402 -0.0352947   0.183578  0.225408 -0.050408   0.97296
-0.151718 -0.283042 -0.199121  0.125579  0.268002 -0.955199
-0.178617 -0.419939 -0.124935 -0.425632 -0.735939 -0.526528
-0.420441 -0.111524 -0.148553  -0.589456 -0.0917095  -0.802578
-0.291767 -0.202528  0.187839  -0.20011 -0.192187  0.960739
 0.228961 -0.368808 -0.140698  0.279359 -0.572837 -0.770595
 -0.469393   0.145505 -0.0572504 -0.918438  0.298225  -0.25987
 -0.26972 -0.225312 -0.191948 -0.0307957  -0.284284  -0.958245
-0.161776 -0.147726 -0.178909  0.224428  0.354313 -0.907797
-0.0536503  -0.491547 0.00567353  -0.218132  -0.975868 -0.0099734
 -0.200108 -0.0149181   0.173497 0.634402 0.129999 0.761994
  0.327345    0.34771 -0.0888691 0.623505 0.649614 -0.43502
 0.179134 -0.381551  -0.16008  0.500202 -0.369938 -0.782907
0.391072 0.217229 0.137647 0.685517 0.558846 0.466645
 0.173029 -0.376292  0.166791  0.640436 -0.297304  0.708132
-0.0232683   0.425887   0.156885 0.209995 0.537071  0.81698
-0.140039  0.478296 -0.025794  -0.732029   0.679248 -0.0525015
  0.406281 -0.0716018  -0.162557  0.456764 0.0970183 -0.884281
-0.0256067  -0.494973 -0.0195579  0.424732 -0.691884 -0.583865
0.0308737 -0.161697 -0.144065 -0.0158532   0.711695   -0.70231
 -0.33035  0.138342 -0.184629 -0.230009  0.206847 -0.950952
-0.223856 -0.335162 -0.173316 -0.272936 -0.380711 -0.883496
 -0.198663   0.431245 -0.0974736 -0.421364   0.78066 -0.461544
-0.224126  0.321933 -0.174032 -0.230019  0.331728 -0.914903
 0.391433  0.118071 -0.172621 -0.107258 0.0446666 -0.993227
 0.0357796  -0.492374 -0.0548877 -0.0345491  -0.898216  -0.438195
-0.0658403    0.48798  0.0422428 -0.114199  0.973621  0.197535
0.0440223  0.195321  0.170712 -0.0219547  -0.249372   0.968159
 0.282093 -0.282995 -0.178078  0.405011 -0.382422 -0.830494
 0.039931 -0.382242  0.180037  0.426806 -0.170615  0.888103
0.0923072 -0.215286  0.187259 0.0226431  0.427613  0.903678
 0.262599 -0.285352 -0.181889  0.287649 -0.344855 -0.893495
-0.490574 0.0488913 0.0436085 -0.82621 0.183962 0.532481
0.291723  0.12527 0.201196 -0.072955  0.185399  0.979951
 0.292954  0.138742 -0.200954    0.112791 -0.00703932   -0.993594
 0.341313 -0.363988 -0.031662  0.674579 -0.709933 -0.202332
-0.221415 -0.420077  0.102052 -0.350723 -0.791885  0.499912
-0.195654  0.253213  0.194194 0.0204144 0.0754879  0.996938
 0.0802158 -0.0845162  -0.079637 -0.587824  0.730805 -0.346967
-0.102741 0.0294233  0.033231  0.882875 -0.216135  0.416915
 -0.419945   -0.26807 -0.0327409  -0.828181  -0.559106 -0.0389512
-0.0617493   0.110586   0.101354  0.451639 -0.699805   0.55344
 -0.177964 -0.0860063   0.173452 0.288242 0.310072 0.905964
-0.00776175    0.228649   -0.184468 -0.0341194  -0.159449  -0.986616
  0.392635   0.302344 -0.0200855   0.839207   0.535146 -0.0966928
-0.0581471  -0.215098  -0.184559 -0.0540498   0.330911  -0.942113
  -0.18682   0.464247 0.00375412  -0.443748   0.896128 0.00658071
 -0.133902 -0.0900437  -0.146689  0.628459  0.434775 -0.644989
0.000490175    0.262522     0.19655 0.0528453 -0.203029  0.977746
 -0.137625   0.478681 -0.0371606 -0.482385  0.875602 0.0250364
-0.0295734  -0.314022   0.203393 0.0805017 -0.210493  0.974275
 0.0726051 -0.0753488 -0.0426767 -0.623824  0.716837  -0.31143
 -0.24745  0.326244 -0.165909 -0.279717  0.477895 -0.832691
-0.389305  0.105469 -0.164948 -0.343287 0.0435988 -0.938218
-0.134657  0.348594 -0.185472 -0.180943  0.406325 -0.895634
  0.360584 -0.0612126   0.191225 0.667095 0.288718  0.68675
-0.494709 0.0125485 0.0295475 -0.981829 -0.187506 0.0292108
 -0.494223 -0.0181444  0.0607879  -0.94461 -0.152482  0.290623
 0.375335 -0.225776   0.14165  0.467904 -0.460537  0.754302
0.242801  0.29945  0.17935 0.216525 0.395811 0.892441
  -0.32223  -0.371342 -0.0448385  -0.53457 -0.796707 -0.281944
0.0735731  0.484571 -0.065533   0.13837  0.920955 -0.364275
0.0644157  0.311407  0.197148 -0.0326263  0.0402904   0.998655
-0.473705 -0.053569  0.088112 -0.929079 -0.266796  0.256189
 0.424231 -0.119709 -0.134486  0.661005 -0.192671 -0.725224
  0.425936 -0.0303524   0.156201  0.337697 -0.355117  0.871695
 0.358133 -0.278363  0.127117  0.641663 -0.431927  0.633804
 0.362302 0.0150101 -0.187319   0.349659 -0.0266043  -0.936499
 -0.480709   0.097103 -0.0416898 -0.936443  0.306134 -0.171339
-0.244286  0.189955  0.201031 -0.117799 0.0983918  0.988151
-0.0821096  -0.373739   0.178731 -0.100642 -0.348846   0.93176
-0.323952 -0.295584  0.143916 -0.506081 -0.449206  0.736272
-0.280734 -0.256716 -0.182021 -0.191453  -0.23013 -0.954142
 -0.424216 -0.0405662   0.154347 -0.792491 -0.125882  0.596751
-0.0789115   0.424498   0.154757 -0.23689 0.719328 0.653032
-0.065855 -0.459619 -0.110176 -0.195832 -0.741702 -0.641504
 0.262608 -0.209176  0.197304  0.169498 -0.161049  0.972283
 0.309943 -0.348444  0.108561 0.456722 -0.60414 0.653009
