   0.03467  -0.221756 0.00612538  0.0343049  -0.999408 -0.0026253
0.0242186  0.199049  0.118821 -0.0522733   0.865667   0.497883
  0.196093   0.225055 -0.0533144  -0.13857  0.976458 -0.165312
-0.149242  0.222464 0.0356383 -0.148577  0.988596 0.0245484
-0.0574632   0.199635  -0.118809  0.161476  0.842305 -0.514244
-0.209853  0.224128 0.0581057 0.0713436  0.995087 0.0686468
  -0.488756   0.0869164 -0.00836177 -0.990411  0.133497  0.035561
 0.190018 -0.203374  0.126414 -0.0839537  -0.921218   0.379881
  0.201566   0.065576 -0.0727181  0.604223 -0.760631 -0.237392
 -0.279485   0.230763 -0.0691677 0.0060381  0.988015 -0.154241
-0.258682  0.211582 -0.118814 -0.0497383   0.822181  -0.567049
-0.242054  0.159739 -0.160703 -0.011974   0.13267 -0.991088
-0.348699  0.211761  0.103628 -0.278462  0.908439  0.311763
   0.17838 -0.0237603 -0.0143024  0.967893  0.222653 -0.116659
0.030064 0.191022 0.135053 -0.0239523   0.775468   0.630933
-0.384986 -0.215911 0.0413282 -0.292556 -0.946618  0.135372
0.405296 0.137127 0.152468 0.378142 0.466057 0.799875
  0.474224 -0.0975285 -0.0756534  0.936625 -0.281926 -0.207971
 -0.0276064   0.0663857 -0.00210487   0.369268  -0.925278 -0.0866074
-0.455795  0.093665 -0.126625 -0.511375  0.423114 -0.747977
0.0771984   0.22238 0.0368384     0.1926   0.981045 -0.0213598
-0.223229   0.22916 0.0381072 0.131365 0.982223 0.134095
 0.304333 -0.210541  0.118531 -0.0364204  -0.873671   0.485152
 0.409739 0.0310214  0.162902  -0.182352 -0.0367073   0.982548
 -0.314014  -0.048838 -0.0321386   0.773337   0.629864 -0.0722649
-0.0925801  0.0571961   0.149782 0.540985 -0.24779 0.803701
  0.162985  -0.224851 -0.0491495 -0.0771213   -0.99522 -0.0599061
  0.467565  -0.151975 -0.0418313  0.830353 -0.477565 -0.287133
 -0.466111   0.100397 -0.0807013 -0.879339  0.334774 -0.338658
 -0.327789    0.21905 -0.0892805 -0.227145  0.923698 -0.308525
 0.203691  0.179251 -0.157597 -0.0342516   0.489896  -0.871108
 0.241992 -0.227862 0.0675556 0.380284 -0.81327 0.440427
-0.0632797  0.0747004   0.126538  0.528789 -0.663859  0.528842
0.0385291 0.0896044 -0.130932 -0.492797 -0.710323 -0.502585
0.0259936 -0.074158 0.0341323 -0.424137   0.90262 0.0733882
 0.493055 0.0120097 0.0645146   0.820654 -0.0460802   0.569564
0.0854365 -0.020074 -0.130501 -0.856537   0.11382 -0.503378
0.0306587 -0.211793 -0.101831 0.0456601 -0.988536 -0.143918
 -0.111987  -0.216648 -0.0759904 0.0917753 -0.985219 -0.144643
 0.041373  0.213965 0.0666621 -0.103977  0.992966 0.0566297
 -0.384091  -0.215807 0.00588359 -0.313732 -0.949376 0.0160188
 -0.251917   0.226055 -0.0436638   0.010875   0.999874 -0.0115581
   0.492729  -0.0723783 -0.00558185  0.931763 -0.362797  0.014002
-0.254685  -0.18109  0.156452 0.0464888 -0.397343  0.916492
-0.317545  0.230841 0.0093834 -0.0797377    0.99486 -0.0624184
 -0.432203 -0.0929612  -0.152436 -0.336289 -0.389992 -0.857214
 -0.300417   0.219155 -0.0987134 -0.0962384   0.952678  -0.288345
  0.247167   0.231581 -0.0233479 -0.00838819    0.999832   -0.016283
 0.383391  0.209094 0.0462704  0.46846 0.867266 0.168511
-0.00968772    0.179451    -0.14617 -0.132531  0.507312  -0.85151
    0.29972  -0.0581655 -0.00706571 -0.620396  0.773798 -0.127846
-0.0623533  0.0575874 -0.0989282   0.77394 -0.576256 -0.262576
 0.463706  0.110281 0.0921163 0.919814 0.320826 0.225861
-0.272268 -0.113103  0.142725 0.00296994   0.714542   0.699587
0.119655 0.155362 0.164616 -0.07336  0.19817 0.977419
0.194259 0.106663 0.156904 0.0849357 -0.422915   0.90218
  -0.29311 -0.0908179  -0.104174  0.497426  0.686435 -0.530448
 0.140558 0.0136749 -0.161821  0.396445  0.333271 -0.855431
-0.0461533  -0.217579  -0.048301 -0.194632 -0.900809 -0.388151
   0.204935  -0.0642464 -0.00253302 0.514183 0.836852 0.187868
-0.131944  0.158871 -0.164556 0.0567248 0.0110035 -0.998329
 -0.33257   0.15996 -0.155261 -0.333994  0.224701   -0.9154
-0.326169 0.0312146 0.0635045  0.903882 -0.399379  0.153276
0.0489592 0.0631578 0.0295022 -0.590652 -0.806194 0.0343733
 0.187718 -0.094872 -0.148511 0.256226 0.506647  -0.8232
 0.341868 -0.188154  0.148966   0.20061 -0.613603  0.763706
 0.221095 -0.198628 -0.138569 -0.220609 -0.581479  -0.78308
-0.204793 -0.170848  0.159578   0.12124 -0.335331  0.934266
  0.231951  -0.235356 -0.0277493   0.0297139   -0.999519 -0.00888525
   0.310148  -0.0477247 -0.00180094 -0.716528  0.685891  0.127047
  0.25915 -0.167107  0.161853 -0.162495 -0.334197   0.92839
0.0111746  0.101369 -0.129883 0.0153878 -0.769384 -0.638601
  0.486626 -0.0370975  0.0858166  0.92217 0.112145 0.370171
 0.311947  0.223542 0.0840542 0.251472 0.886137 0.389261
-0.0568764   0.211584  0.0922462 -0.133241  0.952282    0.2746
-0.0812676 -0.0923792  -0.155393  0.432029   0.38248 -0.816737
 0.176178 0.0333299 -0.060129  0.927787 -0.354693 -0.115778
-0.129532  0.107078 -0.172198  0.202617 -0.562873 -0.801324
   -0.16892 -0.00293235    0.106401 -0.967403 0.0744074  0.242066
  0.200452 -0.0737531  0.0960732 0.553935 0.787432 0.270382
 0.104326 -0.215319 0.0833242 -0.0686165  -0.993518  0.0906336
 0.230051 -0.173966 -0.161328 0.0143655  -0.34701 -0.937751
  0.273751   0.224394 -0.0801923 0.000393166    0.927605   -0.373563
  0.118927  -0.217512 -0.0809209 -0.0850885  -0.973186  -0.213703
 0.218043 0.0701021 0.0220861  0.620395  -0.77223 -0.137007
-0.289291  0.225523 0.0710237 -0.0756692   0.987677   0.136997
 0.392078 0.0392418  0.159979 -0.132249  0.632421  0.763252
  -0.465338    0.151133 -0.00529971 -0.920548  0.390183 0.0186984
-0.425891 -0.177277  -0.09211 -0.654398 -0.753549 0.0626673
 -0.164446 -0.0216018  -0.118237 -0.923958  0.317053 -0.213959
 0.426897 0.0765246 -0.149571  0.479866  0.019921 -0.877115
-0.129884 0.0696291 -0.163548 -0.151439 -0.430879 -0.889612
-0.251227   0.22607  0.080641 -0.0203986   0.969451   0.244435
-0.135433 -0.163806 -0.166183 -0.0188044  -0.320901  -0.946926
 0.324899 -0.049751 0.0749413 -0.803342  0.518183  0.293477
-0.0681852  0.0546452  0.0817135  0.768486 -0.492009  0.409093
0.355999 0.133002  0.16224 -0.0962151   0.167904   0.981097
 -0.172156 -0.0236003 -0.0909763 -0.941348  0.181566 -0.284426
 -0.031186   -0.22158 -0.0170309 0.0792481 -0.995319  0.055315
0.0509788  0.216716 0.0415291 -0.321499  0.916359   0.23859
 0.255283 -0.220282 -0.101676 0.0986609 -0.941208   -0.3231
0.325541 0.189924 0.147403 0.0193142  0.686441  0.726929
-0.382128 -0.110394  0.161264  0.0354503 0.00796814    0.99934
-0.0838789  0.0457328   0.135841  0.785564 -0.192657  0.588025
 0.309794 0.0514879 0.0107673 -0.776413 -0.606259  0.172143
-0.0797863  0.0410014   -0.12619  0.837741 -0.312902  -0.44753
  0.461825  -0.132445 -0.0775758   0.865819  -0.492621 -0.0876508
-0.300583 -0.115961  0.151399 0.161425 0.477043 0.863928
-0.0815186 -0.0175463 -0.0908315   0.992836  0.0870666 -0.0818262
 0.165641 -0.102864  0.159385 0.193321 0.290423 0.937167
-0.0261238  -0.217321 -0.0438602  0.326668 -0.910997 -0.251737
-0.233563  0.235555 0.0314887 0.095882 0.987913 0.121793
 0.118523  0.202182 -0.119037 0.0605484  0.898155 -0.435489
-0.445418  -0.13597 -0.111534 -0.746904 -0.397682 -0.532901
-0.177017 -0.208863   0.11264  0.292121 -0.662878   0.68939
-0.195851 -0.229297 0.0297753 0.00675929  -0.993041   0.117577
0.199211  -0.1811 0.155119 -0.0567836  -0.504723   0.861412
 -0.362467   0.221509 -0.0237816 -0.251252  0.967294 -0.034859
 -0.448115 -0.0836728  -0.144734  -0.85309 -0.311221 -0.418782
-0.371242 0.0652892 -0.155784  0.231917 -0.216266  -0.94839
  0.370545 -0.0162029     0.1457 -0.714871  0.132877  0.686515
-0.164982    0.1001  0.159953 -0.177094 -0.427534  0.886483
-0.456555  0.167529 0.0265079 -0.831049  0.555722 0.0230344
-0.0366079   0.217239  0.0622848 0.141823 0.955004 0.260489
-0.191377  0.200311 -0.129339 0.0181196  0.809698 -0.586566
  0.0370441  -0.0629771 -0.00415346  -0.544206   0.838946 0.00303689
-0.00277915  -0.0985369   -0.124568 -0.0442755   0.792526  -0.608229
 0.476451 -0.131304 0.0110555   0.984876  -0.156438 -0.0744733
-0.0841471 0.00879786   0.100656  0.984806 0.0852073  0.151315
-0.0682608  0.0612583   0.106945  0.714329 -0.612142  0.339142
-0.453498 0.0991233  0.132469 -0.596737  0.404218   0.69319
  0.178081     0.2287 -0.0350301 -0.020379  0.994333 -0.104343
  0.27054 -0.216932 0.0913979 0.138089 -0.91846 0.370624
 0.435409 0.0542113 -0.147905  0.502418 0.0915655 -0.859763
0.0206549 -0.139672 -0.155004 -0.179443  0.146644 -0.972777
-0.233743  0.145421  0.163939 -0.120415 -0.239418  0.963421
  0.408697   0.207611 -0.0252451     0.383954     0.923352 -0.000842996
-0.0396552 -0.0707535 -0.0759253  0.365163  0.918464 -0.151919
0.0830596 -0.100227 -0.158452 -0.365048  0.311716 -0.877253
  0.480289 -0.0691786 -0.0874668   0.943698 -0.0635189  -0.324654
  0.497737 -0.0209531  0.0360004   0.998973  0.0194801 -0.0409124
-0.277495  -0.12995   0.15506 0.122786 0.260414 0.957658
-0.336281  0.222382 0.0727013 -0.0460051   0.961306   0.271613
-0.178275 0.0278838 0.0516067 -0.931095 -0.349283  0.105186
 -0.018836   0.215405 -0.0476497 -0.0164907   0.998119 -0.0590427
 -0.493538  0.0626526 -0.0145031  -0.985023   0.167826 -0.0395409
 0.124074 -0.153432 -0.168765 -0.0330432  -0.437109  -0.898801
-0.0303671   0.204742  -0.102474 -0.0853115   0.953069  -0.290486
0.324513 0.121344 0.154014 -0.0333028   -0.21297   0.976491
-0.373666 -0.184191  0.126634  -0.2281  -0.8796 0.417462
-0.0438306 -0.0899749   0.125394 0.384696 0.812733 0.437577
0.0737455  0.150394  0.164644  0.328371 0.0943863  0.939821
 0.335081 -0.148392  0.156864  0.107323 0.0323911  0.993696
2.45561e-07    0.212594   0.0937099 0.00144562    0.99317   0.116671
  0.226181  0.0844861 -0.0685447  0.166131 -0.820017 -0.547698
 0.316846 -0.199143  0.138914 0.0912267 -0.674776  0.732363
 -0.117107 -0.0393883   0.159782   0.146731 -0.0779442   0.986101
 -0.0182429    0.218877 -0.00460112 -0.0133304   0.998544 -0.0522794
 -0.463084  -0.137888 -0.0740969  -0.829827  -0.552433 -0.0787717
 0.320612 -0.222426 0.0894657 -0.00476686   -0.976414    0.215854
  0.442851 -0.0725586   0.145708  0.530932 -0.194604  0.824767
  0.182886 -0.0203884 -0.0285921  0.973947  0.165932 -0.154574
 0.421911  0.189568 0.0540168   0.343577   0.938499 -0.0342597
-0.413068  0.104974  0.158564 -0.266498 0.0594993  0.961997
  0.414528  -0.189658 -0.0742437  0.548006 -0.801201 -0.240347
-0.0178098   0.181581  -0.142073 -0.255431   0.54573 -0.798081
  -0.272078    0.231484 -0.00728498 0.0710419  0.921393 -0.382084
0.0363918  0.193482 -0.131845 -0.00120254    0.854355   -0.519689
0.00130374  0.0984333   0.123849 -0.0528021  -0.876837   0.477879
-0.293272  0.143385   0.15791 0.0785386 -0.074396  0.994131
-0.112839 -0.207803 0.0967203 -0.267232 -0.902581  0.337541
 -0.161388 -0.0596399  -0.147577    -0.687  0.374493 -0.622725
 -0.148462 -0.0871164  -0.168548  -0.24169 0.0575962 -0.968643
  -0.175445 -0.00918755    0.045733 -0.986608 0.0885486  0.136978
-0.447107  0.124604  0.115505 -0.724279  0.426054  0.542124
 0.438689 -0.162907 0.0846636   0.72275 -0.642612  0.254325
  0.182307 -0.0289939  0.0422116  0.914577  0.403354 0.0292424
-0.383836  0.186493 -0.114794 -0.650626  0.574244  -0.49692
-0.198115 -0.216213 0.0961193 -0.00809005   -0.950289    0.311265
 0.305303 -0.105482 -0.134698 -0.272905  0.712415  -0.64652
  -0.1225 -0.215789 0.0731945 -0.0685211  -0.949721   0.305508
-0.0879063  0.0113164    0.12914   0.881102 -0.0428683    0.47098
 -0.29443 -0.104699 -0.135072  0.273525  0.801965 -0.531071
  0.225084 -0.0830334  -0.100479 0.0465901  0.906968 -0.418615
 -0.179095 -0.0734799   0.139937  -0.843343    0.53413 -0.0589693
-0.141651  0.203459  0.119664 0.205992 0.901185 0.381355
-0.470198 0.0484098 -0.120052    -0.840894 -0.000290585      -0.5412
0.302544 0.081554 0.109998 -0.268077 -0.773635  0.574128
0.370336 0.129294 0.156966 0.149271 0.363196 0.919678
 0.160283 -0.208586  0.111821 -0.010827 -0.912937  0.407956
  0.239228  -0.227443 -0.0621559 -0.0906846  -0.960276  -0.263906
 0.248267 -0.203715    -0.128  0.294161 -0.798142 -0.525773
-0.207635  0.220663 0.0982727 -0.0385609   0.893068   0.448266
 -0.225441  -0.234954 0.00224947  -0.162653  -0.986581 -0.0141973
 0.201558 -0.125539 -0.160407  0.130004  0.285146 -0.949627
-0.0553543  -0.198618   0.116635  0.336377 -0.877213  0.342562
  0.22017 -0.159847 -0.159425 0.0438602 -0.138128 -0.989443
-0.415536 -0.188222 0.0880467 -0.322556 -0.858426  0.398826
 -0.190977 -0.0498523 -0.0657442 -0.749669  0.627229 -0.211139
-0.0727043   0.212848  0.0736183 0.0625745  0.956909  0.283566
 0.315704  0.142089 -0.159079 -0.0170648  -0.093565  -0.995467
-0.0563691   0.192817  -0.134806  0.130235   0.79071 -0.598178
  0.500173  0.0202722 -0.0318607   0.98789 0.0570985 -0.144267
  0.312013  0.0433385 -0.0261845  -0.799732   -0.59252 -0.0966938
  -0.339277 -0.00134661    0.087538  0.919789 0.0550688  0.388531
 -0.152658  -0.219532 -0.0642093 0.0257733 -0.989286 -0.143697
-0.428789  0.129052 -0.138211 -0.518859  0.375437 -0.768005
0.142117 0.162626 0.166022 -0.165175  0.264774  0.950059
 0.103809  -0.11029 -0.168972 0.0126406 0.0595811 -0.998143
 -0.239172   0.229244 -0.0274772 -0.0101902   0.999924 -0.0069141
-0.314231 -0.169352  0.153639 0.0258587 -0.379757  0.924725
 -0.0737422  -0.0220508 0.000514257  0.955241  0.180992 -0.234002
-0.179759  0.221478 0.0759711 -0.117714   0.95395  0.275905
  0.359444  -0.208935 -0.0937585  0.224667 -0.907692  -0.35443
  0.477235  -0.127598 -0.0232093  0.938229 -0.344499 0.0323534
  -0.175645 -0.00797712  -0.0326317 -0.866085   0.28161 -0.413028
-0.0323922   0.157107  -0.163538 -0.108481   0.13445 -0.984965
0.357189 0.179212 0.146487 0.139801 0.646187 0.750265
-0.0705956  0.0952891   0.150672  0.354321 -0.460731  0.813746
 0.265728  0.179303 -0.158177 -0.176505  0.582379 -0.793525
 0.293026 -0.212598  0.113073 -0.0033047  -0.892819   0.450404
-0.450651 0.0625532  0.139508 -0.729621 -0.101673  0.676251
   0.35752 0.00429085   0.128512  -0.716365 -0.0115138   0.697631
-0.469803 0.0585659  0.111781 -0.707297 0.0432616  0.705592
 0.122352 -0.224311  0.011226  0.430399 -0.878833  0.205937
-0.429706 -0.189009 0.0379663 -0.620328 -0.778883 0.0923791
-0.0922167  0.0417779   0.140222  0.652456 -0.155088  0.741788
-0.402367 0.0503697 -0.158604  0.114425  0.251526 -0.961063
 0.0283834  0.0667259 0.00662085  -0.443169   -0.89479 -0.0543326
-0.228783 -0.203064 -0.128062 -0.0683735  -0.848818  -0.524246
 -0.276488  0.0712997 -0.0164735   0.412422  -0.909723 -0.0480892
-0.453428 0.0786736 -0.136418 -0.469642  0.431128 -0.770432
 0.471609 -0.115223 0.0305896  0.930666 -0.309825  0.194598
-0.206673  -0.22246 0.0714459  0.264186 -0.962542 0.0609727
-0.0107912  0.0711076  0.0339083  0.131108 -0.990432 0.0430754
 -0.138843 -0.0270153  -0.159203 -0.487736 -0.258201 -0.833934
-0.177777 0.0245705  0.047191  -0.95228 -0.272571  0.137361
0.332181 0.134094 0.160393 -0.157574 -0.239362  0.958059
-0.380381 -0.208716 0.0723257 -0.427715 -0.854018  0.296165
   0.19089   -0.22547 -0.0521512 -0.194555 -0.970893 -0.139698
  0.249629   0.230921 -0.0296701 -0.00207547    0.999621  -0.0274682
0.239847 0.228281  0.01246  -0.228898   0.969435 -0.0883304
  0.299937  0.0734645 -0.0856568  -0.46836 -0.761042 -0.448837
 -0.139637 -0.0216172   0.157204 -0.465951 0.0719802  0.881878
-0.0642379  -0.214692  0.0781185 0.0477739 -0.969179  0.241679
-0.387335 0.0345166  0.155915   0.214648 -0.0451805   0.975646
  -0.486013 -0.00993991   0.0904951 -0.899466 -0.191941   0.39258
-0.338087 -0.197419  0.133022  -0.25988 -0.735929  0.625196
  -0.2767 0.0820154 0.0946063  0.336646 -0.834932  0.435383
-0.0321946  -0.073663 -0.0654472   0.307377   0.947654 -0.0864302
0.282415 0.206382 -0.12799 -0.0423585   0.752832  -0.656848
0.239864 0.149622  0.16128 0.00215638 0.00648781   0.999977
-0.157456  0.141609  0.166758 -0.102848 0.0381483  0.993965
 0.415645 -0.198155  0.034824    0.560594   -0.828073 -0.00544247
 0.232109 -0.221134  0.110156 -0.0594246  -0.940803   0.333704
-0.0624195  0.0105771 -0.0128523   0.945673  -0.321702 -0.0470088
 -0.23184  -0.15443 -0.166508 -0.0414305  0.0177326  -0.998984
  0.177948  0.0215284 -0.0222255  0.958121 -0.258184 -0.123878
-0.0440599   0.217628  0.0435405 -0.180486  0.939679 -0.290564
  0.467785 0.00791584   0.129371  0.807251 0.0523436  0.587883
 0.449698 -0.106946 -0.127239   0.68601 -0.221328 -0.693112
0.0749946 0.0546287  0.120262 -0.716288 -0.350991  0.603106
    0.49528 -0.00366081   -0.063371  0.943833  0.110689 -0.311332
-0.313808  0.205332   0.12412 -0.0681725   0.887295   0.456135
  0.280477  -0.230819 -0.0650661 -0.170178 -0.884137 -0.435133
 0.305196 0.0683714 0.0602649   -0.5238 -0.833035  0.178005
 -0.175049 -0.0152913 0.00662162 -0.913555 -0.215877  0.344693
-0.054667 -0.148484  0.163909 -0.0605253 -0.0252515   0.997847
-0.080068 -0.135026  0.168372  -0.102851 -0.0342338   0.994107
 -0.394334 -0.0191637   -0.15771   0.203869 -0.0743853  -0.976168
   -0.442794 -2.71433e-05    -0.155323 -0.404131 0.0244941 -0.914373
-0.150792 -0.210192 0.0878648  0.415872 -0.821173    0.3908
 -0.477726 -0.0180593   0.100598  -0.980521 -0.0455136   0.191069
-0.176188  -0.01057 0.0234673   -0.989717 -0.00684314    0.142876
  0.283512 -0.0691797  -0.043775 -0.449696  0.879587 -0.155242
 -0.0691946 -0.00559357   0.0288671   0.991643 -0.0329064  -0.124743
 0.474237 0.0487331  0.112289   0.875046 -0.0154136   0.483795
0.0478295 -0.134181  0.157697 -0.00569865    0.016671    0.999845
  0.188616 -0.0711692   0.115511 0.714475 0.613054 0.337179
-0.423177 -0.179767 0.0864978 -0.573361 -0.679195  0.458204
-0.144985 -0.206112 -0.107934  0.127473 -0.991669 0.0185057
-0.301842  0.209031 -0.114698 -0.0381312   0.873585  -0.485175
  0.266275 -0.0745268  0.0262515 -0.318136  0.932171   0.17276
-0.132719  0.219381 0.0443233 -0.00610356    0.852852    0.522117
  0.0861181 -0.00330518   -0.112531  -0.980383 -0.0797246  -0.180257
0.0813374  -0.17827  0.157536  -0.12867 -0.541004  0.831119
  0.466913  -0.123629 -0.0878149  0.907218 -0.390362 -0.156755
-0.153644 0.0897965  0.162892 -0.218214 -0.307478  0.926196
 -0.192474 -0.0478011  -0.032286 -0.758244  0.634903 -0.148203
0.0631758 0.0642781 -0.106999 -0.644659 -0.667714 -0.372253
 0.402424  0.090262 -0.160329 0.0273265 0.0189097 -0.999448
0.346471 0.201844 0.117206 0.214221 0.821772 0.528016
 -0.469838   0.140234 -0.0244571 -0.838598  0.521075  0.158852
-0.281162 -0.199884  0.126024 0.00702703  -0.848844   0.528597
 0.00970053  -0.0742374 0.000991091 -0.019863  0.985752 -0.167027
-0.424279 -0.166087 -0.106772 -0.383467 -0.643169 -0.662787
-0.0684834    0.21041  0.0760542 0.0152583  0.959384  0.281692
 0.352807  0.179404 -0.152081   0.17639  0.576762 -0.797642
0.380568 0.114974 0.165237 0.0474493 0.0234649  0.998598
  0.495499 -0.0477001 -0.0463825  0.906983 -0.289912 -0.305503
 0.258215 0.0940851 -0.113531 -0.181291 -0.885888 -0.427008
  0.476758 -0.0936832 -0.0855196  0.933137 -0.270821 -0.236455
 0.0328033   0.219641 -0.0394601 0.0173027  0.981291 -0.191749
0.0724434 0.0419267 0.0831971 -0.86677 -0.41397 0.278099
  -0.0507545    0.0552881 -0.000386666  0.572128 -0.765288 -0.294964
 0.419096 0.0204066 -0.155994   0.215908 0.00204921  -0.976412
   0.123642   -0.226894 -0.00890275 -0.164419 -0.970625 -0.175649
  0.486223  0.0770614 -0.0748956   0.974605   0.214293 -0.0649831
-0.0590752   0.204617   0.105222 -0.0472763   0.964846   0.258529
 -0.218785 -0.0662218 -0.0349468 -0.366245  0.929315 0.0473145
-0.432487  0.112594  0.143141 -0.564529  0.311944  0.764198
 0.020527  0.214113 0.0823091  -0.227052   0.972702 -0.0479342
-0.0770116 -0.0203528  -0.105456  0.952749 0.0873056 -0.290942
-0.165375 0.0925541 -0.152757 -0.495755  -0.40919 -0.766022
 0.126685 -0.163699 -0.159648 -0.347116 -0.521876 -0.779203
 0.199529 -0.065259 0.0113367  0.669811  0.740865 -0.049725
-0.0588145   0.219754 -0.0391944 0.0377432  0.951235 -0.306148
 0.283348 -0.171312 -0.151942 0.0170781 -0.390437 -0.920471
-0.0379739 -0.0663273 0.00654498   0.470363   0.881989 -0.0292172
-0.0347454  -0.190488  -0.136913 0.0745295 -0.819755 -0.567844
  0.323627 -0.0269616  0.0259386  -0.94813  0.301209 -0.101598
0.335035 0.187538 0.139105 0.0186953  0.712006  0.701924
-0.230922   0.07869 0.0279742 6.48444e-05   -0.977601    0.210465
 -0.496283 -0.0359915 -0.0207134  -0.997702 -0.0630544 -0.0247993
-0.418979  0.184364 -0.087181 -0.585388  0.673139  -0.45189
-0.178536 -0.214916   0.11311  0.226573 -0.734363  0.639824
 0.123513 -0.178097  0.148913 -0.204988  -0.21731  0.954336
-0.397755  0.181015 -0.122293 -0.410919   0.81742 -0.403696
 0.343591 -0.174818  0.152955  0.157143 -0.377224  0.912693
-0.377402  0.193797  0.114394 -0.418925  0.822493  0.384718
-0.494971 0.0532738 0.0264353 -0.963123  0.268414 -0.018677
 -0.17313 0.0209442 0.0898573 -0.902083 -0.264382    0.3411
  -0.366041 0.000246862    0.142053  0.684516 -0.126425  0.717952
-0.125781  0.186708 -0.142982  0.282886  0.880516 -0.380351
 -0.172575 -0.0461193   -0.11103   -0.8299  0.410595 -0.377727
-0.477018  0.130104 -0.021483 -0.890107  0.403288  0.212294
  0.433679 0.00478312  -0.154832  0.279095 -0.173749 -0.944414
 0.0683699 -0.0304881  0.0138476 -0.925495  0.378141 0.0216579
-0.458279 -0.169511 0.0126801  -0.817694  -0.572643 -0.0587968
   0.49718 -0.0316059 0.00687859 0.974316 0.103517 0.199981
-0.351918  -0.14782 -0.157595 -0.0323741  -0.179442  -0.983236
  0.364808 -0.0671184  -0.145341 -0.513604  0.566915 -0.644064
-0.178928  0.207955  0.123281 -0.210292  0.797949  0.564849
 0.370496 -0.162509 -0.152017  0.216007 -0.455736 -0.863508
 0.0539583  -0.203091 -0.0977035 -0.0649434  -0.964556   -0.25576
 -0.333855  0.0319883 -0.0740769  0.867934 -0.247973 -0.430349
 -0.486418  0.0975614 -0.0349669 -0.910742  0.391557 -0.131272
 0.114249   0.20377 -0.125622 0.0823861  0.846358 -0.526204
0.461705 0.108122  0.11201 0.821252 0.318525 0.473379
 0.247307 -0.193346 -0.144502  0.143985 -0.582501 -0.799976
 0.363094 -0.174992 -0.143992  0.202132 -0.597182 -0.776219
   0.326723 -0.00902475   0.0455297  -0.972925   0.227593 -0.0402336
-0.348632 -0.209887 -0.100251 -0.548501 -0.775512 -0.312615
 0.0223529 -0.0767174 -0.0858592 -0.190791  0.945125 -0.265214
  -0.45429   0.157274 -0.0558826  -0.759454   0.648025 -0.0573819
-0.386315  0.113501  0.158166 -0.0578855  0.0816324    0.99498
0.0147295 -0.213967 0.0615052  0.248642 -0.927334  0.279695
-0.461489 -0.081093 -0.122819 -0.873006  0.235183 -0.427259
 0.224548 0.0697007 0.0472911  0.420928 -0.905418 0.0551154
-0.268315  0.208083  0.124193 0.134267 0.848113 0.512519
0.432973 -0.13931 0.129636  0.638334 -0.401342  0.656852
  0.330064  0.0648274 -0.0996541 -0.831368 -0.474947 -0.288536
 0.119513 -0.189929 -0.138591 -0.0693635  -0.733277  -0.676383
 0.368076  0.145387 -0.153842  0.207149  0.213497 -0.954729
-0.0910262  0.0123432  -0.124479    0.861423 -0.00254788   -0.507882
0.0108353  0.215016 0.0584068 -0.0506387   0.957752   0.283101
 0.366018 0.0760545 -0.152397 -0.295875 -0.137818 -0.945232
  0.181429  -0.217037 -0.0783519 -0.131806 -0.970764 -0.200612
  -0.19526   0.064397 -0.0825749 -0.591976 -0.797048 -0.119494
 0.0290328  -0.221508 0.00158504  0.0348561  -0.999283 -0.0148132
  0.381153 0.00602064  -0.154731 -0.451334 -0.145813 -0.880362
   0.3169 0.0861463 -0.124405 -0.512499 -0.476278 -0.714496
0.180124 0.154779 0.167386 0.0396108 0.0539189  0.997759
-0.220368  0.197401  0.141621 -0.0198443   0.794478   0.606969
 0.411473  0.199214 -0.051937   0.43408  0.834094 -0.340384
 -0.482874  0.0917751 -0.0629003 -0.921692  0.365768 -0.129219
   0.480544 -0.00596395   -0.108235    0.78159 -0.0640196  -0.620499
0.0770336 0.0464164   0.12341  -0.811031 -0.0759967   0.580046
-0.490426 0.0193983 0.0501645 -0.980038 0.0446496  0.193733
  0.312888  0.0430383 -0.0221782 -0.806949 -0.587468 -0.060955
 0.472313 0.0836874 0.0980543 0.888974 0.296968 0.348618
  0.435448 -0.0705732   0.153991  0.647294 -0.273766  0.711381
 0.0863346  -0.224055 -0.0117707 -0.0341794   -0.99912  0.0242934
   0.16924  -0.227705 -0.0169037 -0.111122 -0.986009  -0.12425
 -0.439796 -0.0932247  -0.139936 -0.763014 -0.539868 -0.355462
-0.179213 0.0619844 -0.119959 -0.796751 -0.416243 -0.438098
  0.188807 -0.0523795  0.0601114  0.778554  0.625298 0.0534415
 0.378242 -0.189713 -0.121919   0.27755 -0.722126  -0.63364
-0.0257343  0.0753658  0.0685927 0.089937 -0.98028 0.175963
-0.166869 -0.201951  0.136051  0.144617 -0.869241  0.472765
-0.484324 0.0995573 0.0262381 -0.939112  0.316239  0.134395
    0.1941 -0.0714268 -0.0889387  0.597472  0.755767 -0.268036
-0.0220526   0.203486  0.0932982 -0.0513808   0.956011   0.288796
-0.171314 -0.216637  0.107262  0.397637 -0.796988  0.454638
   0.473804 -0.00312984   -0.115455   0.768772 -0.0495958  -0.637597
-0.0367061  -0.170781  -0.156459  0.019204 -0.466697 -0.884209
 -0.348833 -0.0278317   0.124868 0.756888  0.18603 0.626509
  0.456421   0.151765 -0.0500631  0.787254  0.571035 -0.232701
-0.305986 0.0693428   -0.0918   0.49505 -0.807718 -0.320184
0.00192967   0.185146  -0.137145   0.17834  0.669846 -0.720764
-0.0251552  -0.212417 -0.0366286   0.409355  -0.908175 -0.0874502
 0.454674 -0.158584 0.0230038   0.687809   -0.72477 -0.0403385
  0.128601 -0.0930517   0.172938 0.0634025  0.155815  0.985749
0.0705094   0.20586 -0.110435 -0.0181702   0.929647  -0.368003
 -0.213976 -0.0977982    0.13515 -0.180006  0.734762  0.654005
  0.313236 -0.0534677  0.0596149 -0.749543   0.63658  0.181525
0.168888 0.162361 0.163823 0.00351808   0.322476   0.946571
 0.0680889  0.0532485 -0.0854814 -0.776098 -0.544309 -0.318432
 -0.079367   0.221375 -0.0136615 -0.0296028   0.997597 -0.0626332
-0.0790472  -0.056177   0.130457  0.78814 0.418995 0.450864
 -0.139706 -0.0487003     0.1642 -0.147881  0.157497  0.976384
-0.337136  0.212222  0.103758 0.0350837  0.957274  0.287047
    0.1121   0.220045 -0.0505001 0.00794075   0.987597   -0.15681
0.00120768 -0.0944629  -0.124845 -0.0741006   0.791149  -0.607118
  0.036386 -0.0695415 -0.0707588 -0.379182  0.920314  0.096143
 -0.125783   0.224328 -0.0286955 0.227526 0.962388 0.148464
 -0.320435  0.0288155 -0.0407345  0.930684 -0.308259 -0.196988
-0.139085  0.120177   0.17102  0.0436131 -0.0165152   0.998912
0.302991 0.107835 0.135715 -0.00233398   -0.760858    0.648914
 -0.171883 0.00469041   0.101339 -0.959808 0.0130178  0.280355
 0.111661  0.185826 -0.141614 -0.00497528    0.592847     -0.8053
 -0.351231 -0.0492203   0.134776  0.671911 0.0364568  0.739734
  0.173443 -0.0103176 0.00135957  0.992754  0.117065 -0.027119
  0.287724   0.229538 -0.0599061 0.0702047  0.979395 -0.189359
-0.117783  0.195018 -0.134548  0.217266  0.816801 -0.534445
 -0.159689 -0.0366361  -0.134422 -0.808621  0.213731 -0.548134
-0.0315931   -0.10782   0.148769 0.189027 0.569733 0.799796
0.00973216  0.0898267  -0.104834  0.112165 -0.904251 -0.412006
 -0.103014 -0.0439508   0.155774    0.487098 -0.00658836    0.873322
  0.267748  -0.086453 -0.0967613 -0.127146  0.959103 -0.252894
0.451728 0.120187  0.11055 0.767777  0.43654  0.46899
 0.482232 0.0511248 0.0715554 0.839924 0.186989 0.509472
-0.482486  -0.10679 0.0226314  -0.933489  -0.354607 -0.0534029
 -0.218953   0.231536 -0.0191992  0.0969713   0.993667 -0.0567607
 -0.486638 -0.0305179  0.0913464 -0.927611  0.192538  0.320105
  0.250706 -0.0754786 0.00515304   -0.154626    0.987961 -0.00482015
-0.254892 -0.206528  0.127859 -0.0317524  -0.872385   0.487787
  -0.17995 -0.0424324  0.0870001 -0.876725  0.417346  0.239113
 -0.48463 0.0735784  0.068317 -0.975537   0.21768 0.0307111
 0.338848 0.0311153  0.104368 -0.858418 -0.268929  0.436802
   0.10312   0.213701 -0.0956246 -0.0683709   0.927034  -0.368691
0.352885 0.201795 -0.11334  0.200894   0.83757 -0.508053
 -0.121427 -0.0168744   0.162481   0.12167 0.0860701  0.988832
-0.460559 -0.120447  -0.10317 -0.838629 -0.360581 -0.408269
-0.204132  0.117592 -0.154774 0.00103735  -0.401958  -0.915657
-0.479847 -0.019213  0.111324 -0.904117 0.0389702  0.425504
-0.0480306    0.10715  -0.147823  0.261881 -0.481876  -0.83619
 0.257225 -0.217941 -0.102887  0.105851 -0.931364 -0.348362
-0.119861  0.163424 -0.162288  0.160707 0.0360167 -0.986345
 -0.15344 0.0689117  -0.15644 -0.332323 -0.317965 -0.887952
-0.00569125    0.221507 -0.00926286 -0.0891074   0.994603  -0.053142
0.258451 0.101841 0.137118 0.0667338 -0.744081  0.664748
-0.399921 -0.142474  0.149792 -0.328894 -0.313368  0.890859
-0.489565 -0.097837  0.016292  -0.86943 -0.380568 -0.315055
-0.287444 -0.232519  0.031999  0.132972 -0.960719 -0.243593
  0.45292   0.16583 0.0119495 0.791306 0.518153  0.32458
-0.149823  0.202169  0.135058 0.330304 0.784645 0.524625
-0.166576  0.224643 0.0284104 -0.0320841   0.998875  0.0349195
0.0537771  0.172789 -0.155738 -0.0752587   0.542281   -0.83682
  0.192467 -0.0930705   0.142144 0.312599 0.592823 0.742188
 -0.179368 0.00162296  0.0423121 -0.981379 -0.122855  0.147653
 -0.364878 -0.0108257    0.13698    0.660073 -0.00417849     0.75119
 0.188654 0.0445491 0.0431499  0.672646 -0.738116 0.0522624
  0.195823  -0.051652 -0.0206961    0.737131     0.67575 0.000168694
 0.195358 0.0577403 0.0112293  0.562047 -0.823183 -0.080455
0.291565 0.194832 0.138863 -0.0053073   0.677172   0.735805
0.280051 0.208791 0.122437 0.132156 0.644345 0.753229
  0.3519 0.181117  0.14456 0.0515207  0.681943  0.729589
 0.45151 0.118409 0.114561 0.771445 0.412139 0.484783
   0.38784  -0.216612 0.00258888  0.400748 -0.902236 -0.159283
0.0229867  0.201743 -0.110128 0.0354798  0.914108 -0.403915
  0.381929   0.216559 -0.0113631   0.16345  0.982711 0.0869647
-0.173344  0.059996  0.135703 -0.734734 -0.254429  0.628834
  0.445084   0.165984 -0.0719608  0.795293  0.589425 -0.141727
 -0.338447  -0.217559 -0.0952441 -0.178465  -0.98388 0.0113941
0.00732078   0.211361  -0.077759 -0.0618871   0.994819 -0.0806552
-0.266879 -0.205771  0.125353 -0.0898829  -0.881355   0.463826
  0.238476  -0.230346 -0.0404968  0.0712437   -0.99256 -0.0987344
   0.373661    -0.22177 -0.00709833  0.620663 -0.661902  0.420314
 -0.15685  0.169102 -0.159123 -0.217951  0.507363 -0.833715
 0.22995 0.155344 0.163159 -0.0183027  0.0705781   0.997338
 -0.255635  -0.230633 -0.0364991  0.0201091  -0.999017 -0.0394992
 0.319259  0.232398 0.0107037   0.13684  0.988605 0.0627315
0.208801 0.111979 0.155686  0.125017 -0.473246  0.872014
  0.231764  -0.220419 -0.0966969   0.149654  -0.987047 -0.0578036
  -0.48682  0.0509285 -0.0599005 -0.989363 0.0970734 -0.108344
 -0.470188   -0.10312 -0.0831264 -0.870664 -0.260112 -0.417476
  0.208689   -0.22851 0.00826544 -0.238766 -0.958172 -0.157791
-0.210807 0.0912751 -0.131363 -0.359605 -0.645252 -0.674043
0.0889262  0.212095 0.0906489 -0.13694 0.972639 0.187672
 0.0303875  0.0707682 -0.0228494 -0.424402 -0.896469  -0.12738
  -0.16434 -0.0185579   -0.12245 -0.984425  0.173796 -0.026501
-0.271064  -0.19241 -0.138159 -0.187717 -0.733502 -0.653251
   0.118726 -0.00063011   -0.165866 -0.509578  0.258152 -0.820785
 -0.474611   0.103383 -0.0779154 -0.923351   0.33525 -0.187162
 -0.204619  -0.072462 -0.0775398  -0.49983  0.761536 -0.412593
-0.0374352  0.0829006  -0.104428  0.235877 -0.898723 -0.369674
-0.464722  0.133837 0.0722289 -0.858752  0.499877  0.112552
 -0.428495  -0.169445 -0.0836944 -0.778724 -0.625523 0.0480618
-0.304263 0.0796765  0.109127  0.415465 -0.728939  0.544092
  -0.154089   -0.226887 -0.00121721  0.107595 -0.976365 -0.187441
  -0.42199   0.184882 -0.0758532 -0.706474  0.636717 -0.309008
  0.215417  -0.214795 -0.0930801  -0.416937  -0.906545 -0.0658685
 0.172141  0.130647 -0.164486  -0.454816 -0.0354751  -0.889879
 0.0212946    0.21669 -0.0456875 -0.0284059   0.982409  -0.184568
0.0744361  0.220822 0.0232085  0.180253  0.974427 -0.134166
  0.14172 -0.103748 -0.168681  0.161033  0.253806 -0.953756
0.0896319  0.169335 -0.158596 0.0574631  0.600177   -0.7978
-0.388013   0.17674  -0.13351 -0.498348  0.654785 -0.568248
-0.0450298 -0.0666542  0.0761831 0.356039 0.927922 0.110439
-0.140262  0.159116  -0.16581 0.0853436  0.401336 -0.911946
   0.229591    0.228086 -0.00660223 -0.0802499   0.996228  0.0330021
 0.279282 -0.132132  0.163006 0.125178 0.359863  0.92457
-0.00506312    0.207057  -0.0793554  -0.15048  0.983304 -0.102319
0.0995851  0.196504 -0.138082 -0.135402  0.762213 -0.633007
  -0.07235   0.211253 -0.0978709 -0.128583  0.761814 -0.634906
-0.0509602 -0.0806729   -0.11179 0.321152 0.927931 -0.18922
-0.0469117   0.124551   0.158993  0.130374 -0.570452  0.810918
  0.175386 0.00877468 -0.0749296    0.99601 -0.0226883 -0.0863052
0.350065 0.159929 0.152785 0.0862322  0.340625  0.936236
  0.441244  -0.179287 0.00336949    0.68798  -0.725385 -0.0223506
-0.30738 0.202824  0.13071 -0.0656035   0.839604   0.539222
 0.231267 -0.122708 -0.154648   -0.20979 -0.0623688  -0.975755
-0.249943 0.0744214 0.0122189  -0.177699  -0.983146 -0.0429667
   0.287687   0.0706384 -0.00851655 -0.504239 -0.863309  0.020978
 -0.454093  -0.168455 -0.0321224 -0.787827 -0.576282 -0.217318
-0.0771223   0.210493   0.100693 0.160894 0.953942 0.253197
-0.0879255 -0.0918264  -0.164346  0.466563  0.293844 -0.834251
0.0505905  -0.15843 -0.158617 0.0368169 -0.278205 -0.959816
-0.357623  0.170895  0.151928 -0.240339   0.48604   0.84024
 0.225672  0.228311 0.0508053 -0.0352235    0.98738   0.154402
 -0.278883    0.23148 -0.0166376   0.320258   0.947201 -0.0156738
 -0.483041 -0.0552859  0.0940263 -0.915831 -0.277738  0.290026
0.0191313  0.204656  0.100194 -0.15788 0.884219  0.43958
 0.205273   0.16464 -0.163206 0.0420587  0.272929 -0.961114
-0.136258 -0.156333 -0.167579 0.0287841 -0.115429 -0.992899
 0.232502  0.172086 -0.156493 0.0083512  0.520636 -0.853738
   0.48932  0.0596318 -0.0352363  0.90892  0.35542 -0.21804
-0.272843  0.228485 0.0559441 -0.0981234   0.982955   0.155472
-0.455525 -0.100093 -0.126768 -0.504642 -0.351965 -0.788326
-0.207946 -0.169438 -0.158885 0.0649238 -0.422103  -0.90422
 -0.12107   0.19897 -0.133749    0.2283  0.813254 -0.535254
  0.469441   0.138731 -0.0344339  0.937519  0.347764 0.0108371
 0.0392654  0.0743612 -0.0735858 -0.542657 -0.825137 -0.157071
0.0518474  0.216416 0.0590898 -0.248523  0.961681  0.115788
-0.351001  0.178854 -0.145643 -0.203956  0.433835 -0.877604
 0.193982 0.0853826 -0.123774  0.461768 -0.735359 -0.496002
 0.0209988 -0.0860597   0.105811 -0.232586  0.923434  0.305243
   0.27239 -0.0794279 -0.0603388 -0.171573  0.959443 -0.223679
-0.300169 -0.133841  0.156023 -0.0702788   0.224531   0.971929
   -0.35476 -0.00724061    0.125784   0.738563 0.00369764   0.674175
 0.0978023   0.215685 -0.0703189 -0.0871739   0.955757  -0.280945
 -0.288612 -0.0855408   0.100931 0.280694 0.817721 0.502537
 0.447964 -0.134071 -0.104277 0.653878 -0.52825 -0.54166
-0.292556  0.146914 -0.163184  0.154477 -0.199645 -0.967615
-0.197609  0.154142  0.166218 -0.000688144     0.218258     0.975891
 0.104923 0.0826682 -0.169036   -0.1917 -0.182471 -0.964342
-0.200482 0.0676929 0.0788062 -0.506966 -0.826584  0.244425
  0.216564 -0.0914185  -0.125388  0.300583  0.904568 -0.302337
-0.0770951  -0.218376 -0.0107461 -0.106073 -0.986323 -0.126159
 0.439152 0.0309902 -0.156974  0.391195 0.0863364 -0.916249
-0.113393  0.224925 0.0316435   0.545168   0.837942 -0.0254149
 0.067772 0.0385836 -0.026888   -0.872692   -0.488193 -0.00878688
 -0.230448  0.0728441 -0.0414559 -0.180205 -0.978127 -0.103895
-0.192009  -0.16678 -0.163117  -0.22688 -0.343885 -0.911191
 -0.070957 -0.0337947 -0.0509989   0.947206   0.319603 -0.0255765
-0.414685 0.0261567 -0.162421 0.0193442 0.0705482 -0.997321
 0.235793 -0.182168  0.157492   0.030443 -0.0184995   0.999365
-0.200119 -0.119542  0.157268 -0.118306  0.327987  0.937245
  0.45916  0.149271 0.0628785  0.860458  0.505016 0.0676092
 0.106315   0.21099 0.0990883 -0.0466014    0.99423  0.0966196
  0.330888  0.0521697 -0.0979017  -0.944098    -0.3205 -0.0771959
 -0.198827 -0.0755964 -0.0993475 -0.578547  0.713262 -0.395652
-0.292536 -0.152282 -0.162185  0.256836  0.156269 -0.953738
 -0.353025  -0.219463 -0.0567375 -0.118097  -0.98577 -0.119628
-0.248877  0.150219   0.16437 -0.0126166  0.0174581   0.999768
-0.0896341   0.218464 -0.0393384   0.163478   0.986161 -0.0275837
-0.205441   0.11671 -0.155101 -0.0957749  -0.415618  -0.904482
 -0.184477 -0.0388271  0.0117962 -0.813972  0.568187  0.120885
 0.056065 -0.207668  0.115859  -0.11325 -0.872473  0.475358
 -0.493191 -0.0432124 -0.0290751  -0.999476 -0.0291403 -0.0141182
0.0766028 -0.181889  0.145452 -0.0870518  -0.677229   0.730604
  0.293487  -0.225573 -0.0691059  0.212941 -0.808994 -0.547891
 -0.133105 -0.0581462  -0.164013 -0.116462  0.127995 -0.984913
 0.373976 0.0371214 -0.149209  -0.468911 -0.0813793  -0.879489
 -0.29802 -0.140049  0.159668  -0.0115907 -0.00488568    0.999921
-0.0792586  -0.223025  0.0127413 0.0603609 -0.980293    0.1881
  -0.43391   0.165824 -0.0896386 -0.671235  0.659065 -0.339228
  0.366461   0.213044 -0.0819176  0.303628  0.873461 -0.380626
  0.364428 -0.0737986   0.148994 -0.348973  0.234227  0.907389
  0.252765 -0.0744476 -0.0144753  -0.135082   0.987194 -0.0848606
  0.436296   0.166844 -0.0915772  0.573745  0.458477 -0.678687
 0.325383 0.0067521 0.0550746  -0.997749 -0.0338466 -0.0578915
 0.491479 0.0363199 0.0720498  0.917015 0.0635398  0.393758
-0.00418756  -0.0738179  0.00641235  0.0785186   0.996494 -0.0288767
 0.074773 0.0184591 -0.061787  -0.971088  -0.225944 -0.0770512
 -0.461072  -0.124082 -0.0874186 -0.837525 -0.262623 -0.479147
 0.265194 0.0773811 0.0592597 -0.255396 -0.965819 0.0443479
-0.409429 -0.175499  0.123873 -0.502161 -0.719303  0.480039
-0.218277 -0.150495 -0.165052 -0.0613888   0.280509  -0.957886
 0.0067549  0.0876796 -0.0927265  0.212248 -0.950724 -0.225996
0.0140394  0.200328  0.119157 -0.0103371   0.896486   0.442952
-0.170729 0.0267893 -0.113839 -0.865835 -0.302608 -0.398445
-0.245134  0.105048  0.136059 -0.0662529  -0.747829   0.660578
 -0.239889 -0.0730806  -0.034936   -0.101786    0.994773 -0.00813008
 -0.284851 -0.0757905  0.0579208 0.490097 0.855934 0.164867
-0.385777 -0.113655   -0.1628 -0.0270597 -0.0423897  -0.998735
0.247036 0.126256 0.157219 0.0492859 -0.353661  0.934074
-0.117352 -0.208978  0.112488 -0.0936089  -0.994917 -0.0371063
-0.156178  0.226819 0.0145515 -0.000225098     0.997095   -0.0761655
 -0.349118 -0.0604637   0.133223 0.493837 0.328897 0.804955
 -0.412815  -0.190595 -0.0871183 -0.483175 -0.840362 -0.245629
 -0.215846  0.0676231 -0.0056358 -0.717816 -0.695345 0.0351497
-0.0993334  0.0198655   0.146374  0.685114 0.0309953  0.727776
  0.14605  -0.22414 -0.034613  0.0561745  -0.995135 -0.0809378
 -0.239455  0.0904113 -0.0995488   -0.1399 -0.902892 -0.406466
-0.0170407   0.189335    0.13867 0.0126052   0.75204  0.658997
    0.110723 -0.000369212    -0.156364 -0.702491  0.174738 -0.689908
 0.426548 -0.189627 -0.034802   0.578262  -0.812661 -0.0720842
 -0.255672 -0.0931778  -0.118515 0.00211815    0.85308  -0.521775
-0.0690121  0.0546846  0.0829728  0.793862 -0.499783   0.34641
-0.437505   0.14806 -0.110136 -0.649786  0.533891 -0.541053
-0.163768 -0.225709 0.0561233  0.138829 -0.984383  0.108247
  0.166354 -0.0212633    0.11536 0.903077 0.223741 0.366596
 -0.485551 -0.0978612 -0.0424351 -0.913062 -0.382094  0.142552
 0.346988  0.226811 0.0437824  0.263111  0.962676 0.0634692
-0.301832 -0.229392 0.0262887 -0.0149532  -0.994843  -0.100316
  0.454379  -0.168595 -0.0296267  0.750592 -0.646314 -0.137442
  0.192876 -0.0576231 -0.0496465    0.757058    0.653334 -0.00416642
 0.182504 -0.149218 -0.164624  0.0665109 -0.0934726  -0.993398
  0.48956 0.0682231 0.0181781   0.93846  0.339302 0.0645488
  0.49065  0.040216 0.0576376  0.978553 0.0976597  0.181375
 -0.487474 -0.0963312 -0.0431565 -0.923921 -0.352006   0.14987
  0.267809  -0.234585 -0.0164879 -0.0633411  -0.997759  0.0215778
-0.0685545  0.0380161  0.0540119 0.742093 -0.18261 0.644943
-0.446007 0.0232785 -0.151586 -0.439973 0.0194873 -0.897799
-0.362564  0.133587 -0.159009 0.0134801 0.0330017 -0.999364
 -0.484806 0.00920091 -0.0766298 -0.960939 0.0643092 -0.269185
 0.0313032  -0.211638 -0.0558524  0.073446 -0.969693 -0.233025
  0.08865  0.193281 -0.134243 -0.104982  0.735779 -0.669035
 -0.339502  -0.213828 -0.0901942 -0.167202 -0.979565  0.111789
 -0.0691192   0.0302217 -0.00477779  0.913631 -0.380222 -0.143905
 -0.175283 -0.0567016  0.0854674 -0.839782  0.450871   0.30246
-0.0150712   0.214214  0.0594961 0.0211785  0.993961  0.107669
-0.443197  0.145594  0.107053 -0.762584  0.496713  0.414417
0.0471611  -0.11999  0.161701 -0.0584253   0.248482   0.966873
 -0.317667 -0.0767269  -0.117352  0.592118  0.552744 -0.586405
 0.339565 0.0438646  0.119555 -0.755862 -0.313526  0.574782
  -0.171165 -0.00638257  -0.0724567 -0.979764 0.0510812 -0.193527
 0.103096 -0.118356  0.168088 -0.166957 0.0131159  0.985877
-0.305923  0.058692 0.0591173  0.655203 -0.745464  0.122444
-0.335722  0.226881 -0.042023  0.224455  0.960837 -0.162518
-0.0821626   -0.14043   0.167496 0.0127644 -0.014161  0.999818
-0.16728 0.132375 0.168115 0.0630007  0.173394  0.982835
 0.176613 -0.118514  0.164812 0.158617 0.216277 0.963361
-0.227655  0.196946  0.138783 0.00365239   0.780338   0.625348
 -0.35054 -0.230689  0.011346 -0.194835 -0.972621 -0.126678
 0.387369  0.102198 -0.160722  0.0082326 -0.0488773  -0.998771
 -0.187247 -0.0624437   0.106065 -0.569218  0.461892  0.680181
 0.173918 -0.098109  0.154124 0.219608  0.35683 0.907989
  0.321526  -0.216626 -0.0981089  0.131177 -0.933182 -0.334611
-0.281489 -0.230809 0.0722401 0.0834042 -0.988892  0.123028
-0.175259 -0.169078 -0.165206  0.109451 -0.366665 -0.923892
-0.0217821 -0.0878771  -0.120474 0.0826255  0.896875 -0.434498
   0.49435 -0.0376315 -0.0613518  0.954933 -0.203119 -0.216441
-0.151424 0.0822304 -0.162686 -0.449536 -0.516208 -0.729004
-0.155656  0.207979  0.110366 0.147277 0.939012 0.310749
 0.033819 -0.201404  0.124059 -0.054644 -0.897436  0.437746
 0.0424867 -0.0734043 -0.0911737 -0.499689  0.821138  -0.27576
-0.0250623   0.180651   0.151259 0.0689919  0.608261  0.790733
-0.250629 0.0757607 0.0104534  -0.169025  -0.984553 -0.0456666
0.0179535 -0.186987 -0.138586 -0.101837 -0.784315 -0.611947
 -0.331373 -0.0280623 -0.0819479  0.904839  0.326929 -0.272735
 0.0662042  0.0196631 -0.0169703  -0.982199  -0.163563 -0.0923758
 0.245746 -0.182266  0.154168  0.191829 -0.105321  0.975761
 -0.345979  -0.213003 -0.0961242 -0.405463 -0.905155 -0.127647
  0.487375 -0.0149519 -0.0882407   0.952415 -0.0621898  -0.298393
 0.133668 -0.128405 -0.170726 0.203316 0.154729 -0.96681
  0.26689  0.234195 0.0196312  0.0106489   0.999465 -0.0309259
-0.153852  0.216032 0.0849752 -0.103132  0.783572  0.612682
-0.182239 -0.109086  0.159814 -0.246258  0.293355  0.923742
 0.229323 -0.207483 -0.135302 -0.0536499  -0.780726  -0.622566
 -0.427233  -0.190408 -0.0168595  -0.427724   -0.90377 -0.0158994
-0.416622  -0.16651 -0.107307 -0.550273 -0.386491 -0.740151
-0.182893 0.0320133 0.0288701 -0.917359 -0.369529   0.14799
 0.0127277   -0.21785 -0.0085745  0.0876047  -0.995821 -0.0258038
  0.487525 -0.0983662 -0.0297432  0.819042 -0.345912  0.457729
0.267505 0.211264 0.115831 -0.207579  0.805838   0.55456
 0.244116 -0.181608 -0.154331 0.0538943 -0.454115 -0.889311
  -0.327437 -0.00901645  -0.0511397  0.971926 0.0189457 -0.234523
 -0.430634   0.195209 0.00853349   -0.564028    0.825755 2.17243e-05
 -0.425914 -0.0263578    0.15542   -0.185305 -0.00221033    0.982679
-0.0534981   0.215167  0.0401872 0.0808518   0.99174 -0.099574
 0.112053  0.163741 -0.161406 0.00491561   0.547627  -0.836708
-0.415183 -0.179613 -0.101347 -0.168389 -0.830522 -0.530923
 0.144467 -0.210601  -0.10095  -0.22132 -0.864557 -0.451175
 -0.258514  0.0781479 -0.0459022  0.122714 -0.987028 -0.103527
 -0.478293  -0.127318 0.00677174   -0.939037   -0.343674 -0.00987561
-0.0120915 -0.0770119  0.0631923 -0.00175367    0.998837   0.0481869
  0.222566   0.227416 -0.0570279 -0.318466  0.938811  0.131203
-0.0151585 -0.0789921 -0.0530597   0.147933   0.987046 -0.0620999
-0.338046  0.030354 0.0999293   0.81289 -0.326031  0.482612
-0.248314 -0.189978  0.150036 0.0536843 -0.572916  0.817854
 -0.448275 -0.0717595  -0.147807  -0.81607 0.0109214 -0.577851
-0.0561653  0.0485603 -0.0299325   0.782553  -0.617911 -0.0761358
 0.277898   0.23525 0.0273563  0.098407  0.994873 0.0233334
-0.0668614  0.0471775 -0.0722842  0.845052 -0.514533 -0.145404
 0.319832 -0.141609 -0.160446  0.0470421 -0.0672704  -0.996625
-0.167821 -0.229834 0.0245344 0.0667619 -0.994083 0.0856844
0.0155569  0.211559 0.0758059 -0.174334  0.983939 0.0383628
  0.121554  -0.222342 -0.0110751 -0.0978709  -0.980707   -0.16922
0.0822511 -0.201198 -0.109813 -0.0575136  -0.926792  -0.371145
-0.215192 -0.174236 -0.162428  0.179481 -0.426874 -0.886321
-0.403951 -0.199831 0.0652331 -0.415613 -0.718285  0.557972
 0.410265  -0.18636 0.0852059  0.538232 -0.828743  0.153268
  0.304104 -0.0448631  0.0259555  -0.607314   0.789818 -0.0857719
-0.323235  0.120468  0.155587 -0.0874012  -0.225996   0.970199
  -0.2136 0.0926522  0.132569 -0.281551 -0.725439  0.628067
-0.450457   0.15553 0.0784044 -0.798996  0.549047   0.24526
0.00215352  -0.198185    -0.1151 0.0772805 -0.830096 -0.552239
-0.371955  0.188917  0.123299 -0.409926  0.672317  0.616401
   0.48717  0.0390151 -0.0744605    0.98049 -0.0465971  -0.190968
 -0.165239 -0.0184652  -0.124871 -0.982617  0.184188 0.0232117
 -0.426864   0.184878 -0.0618888 -0.739965  0.635779 -0.219629
 0.224231  0.180492 -0.158321  0.272119  0.397814 -0.876182
-0.169235 0.0296222  0.102697 -0.842209 -0.310531  0.440744
0.300562 0.112004 0.144895 -0.059329 -0.638578  0.767267
0.0740204  0.190377 -0.140783 0.0904348  0.713067 -0.695239
-0.0338319 -0.0670684   -0.02256   0.316199   0.948431 -0.0223005
  0.271549 -0.0733731 0.00108022 -0.366835  0.915927 -0.162818
  0.156958   0.221445 -0.0135926 -0.0592669   0.988868   0.136479
 0.191829 0.0542264 0.0153965  0.690041  -0.70595 -0.159618
-0.149569  0.221973 0.0766808 0.0938146  0.974602  0.203346
 0.241378  0.198478 -0.142172  0.139514  0.473975 -0.869416
  0.215748 -0.0814016  0.0944802 0.372065 0.881274 0.291417
 -0.304746 -0.0943615  -0.123814  0.471098  0.693675 -0.544869
  0.419606 -0.0965164   0.156474  0.616725 -0.146228  0.773478
 0.293173  0.158356 -0.161472 0.0752271 0.0155703 -0.997045
0.320981 0.113174 -0.15209 -0.184366 -0.569523 -0.801033
-0.266964 0.0940687  0.112486  0.186309 -0.866694  0.462743
0.0578891  0.129511  0.160506 0.00794076  -0.253518   0.967298
 -0.0982027    0.220491 -0.00162517  0.0403692   0.996812 -0.0688175
  0.264043 -0.0883147   0.100604 -0.0972701   0.923669   0.370639
0.0614611 -0.217323 0.0230806 0.0394562 -0.997832  0.052676
 0.220668  0.215128 -0.114355 0.0127688  0.919565  -0.39273
 0.413177 0.0532122 -0.164396  0.168214 0.0312634 -0.985255
  -0.3355 0.0545715  0.107111  0.712442 -0.367005  0.598108
 -0.347698   0.220909 -0.0644664 -0.171676  0.977117 -0.125579
0.0346356  0.184272 -0.149652 0.0458808  0.592772 -0.804062
  0.33425 -0.162638 -0.156669 0.0817711 -0.234817 -0.968594
  0.349939  -0.219346 -0.0637946   0.162887  -0.983436 -0.0795015
 -0.45583 0.0699233  0.130499 -0.750343 -0.223418  0.622149
 -0.269553  0.0843196 -0.0796435 -0.0587631  -0.790259  -0.609949
 -0.28182 -0.224084 -0.104669  0.608295 -0.754103 -0.247599
-0.0427424 -0.0770075  -0.106517  -0.27553  0.859814 -0.429888
-0.357208 -0.198272 -0.114592 -0.342438 -0.809111 -0.477573
-0.0303935 -0.0678933  0.0261081  0.322273   0.94174 0.0962549
  0.316152 -0.0682699 -0.0872196  -0.63982   0.69319 -0.331842
  0.305588  0.0653526 -0.0609543  -0.54992 -0.773736 -0.314516
