 -0.151562 -0.0906539  -0.164105  -0.17894  0.110433 -0.977643
  0.3225 -0.21508 0.100989  0.139238 -0.913561  0.382125
 -0.039685 -0.0649385 -0.0133056   0.512476   0.857928 -0.0364427
 0.191781  -0.22344 0.0663767 -0.0676138  -0.974795    0.21261
 0.287565 -0.134067  0.157482 -0.0220881   0.125677   0.991825
-0.450315 0.0856562  0.136317 -0.61429 0.262475 0.744147
  0.487674 -0.0908483  -0.019866   0.944435  -0.316676 -0.0880861
0.335421 0.209472 0.110054 0.188745 0.857237 0.479083
  0.457596 -0.0201936   -0.13958   0.627627 -0.0539378  -0.776644
-0.34195 -0.02868 0.109059 0.701848 0.183642 0.688248
  -0.26063  -0.220471 -0.0956398 -0.0052167  -0.944478  -0.328534
-0.263441 -0.232336 0.0114698 0.00327609    -0.9992  0.0398471
 0.237955 0.0749549 0.0266595 0.0363697 -0.996844  0.070566
   0.22693  -0.223532 -0.0778764 -0.0409835  -0.965737  -0.256266
-0.0719105  -0.015231 0.00312613   0.985425   0.170086 0.00286542
 0.192997 -0.213255  0.107405 -0.0745041  -0.898509   0.432587
 -0.389657  -0.198504 -0.0958914 -0.381198 -0.823181 -0.420785
  0.274014   0.229448 -0.0502639 -0.00901617    0.985788   -0.167751
-0.325058   -0.2108  0.110846 -0.138771  -0.87226  0.468941
  0.136042  -0.224199 0.00231661 -0.0693294  -0.996872  0.0379553
 0.369243  0.186836 -0.131056 0.285732 0.668041 -0.68708
 -0.344647   0.226866 -0.0114065  -0.173352   0.984312 -0.0328573
0.0897542 0.0141516 -0.128963  -0.862967 -0.0834277  -0.498325
0.0671693 0.0459419 0.0738853 -0.802232 -0.541621  0.251137
 0.311515  -0.04835 0.0197865 -0.830411  0.550605 0.0851583
-0.244054 -0.085192 0.0896626 -0.0121057   0.839573   0.543113
-0.347197 0.0436566  0.125522  0.578997 -0.226419   0.78326
  0.211901 -0.0673688  0.0272412 0.456237  0.88398  0.10212
0.0475917  0.169314  0.156988 -0.0433852   0.409592   0.911236
 -0.229337 -0.0841582 -0.0967766 -0.144094  0.844936 -0.515093
  0.464558  -0.113805 -0.0959526  0.797506 -0.372121 -0.474878
    0.074746 -0.000989552   -0.0448573  -0.995044  0.0246374 -0.0963388
0.0654827 -0.050361  0.076631 -0.748246  0.594189  0.295072
  0.368788  -0.218081 -0.0470127  0.270076 -0.952992 -0.137349
 0.209681  0.145812 -0.163774 0.0485769 0.0507798 -0.997528
  0.496019 -0.0497564  0.0150142  0.983809  -0.16721 0.0645064
 -0.419926 -0.0902291   0.155248 -0.177347 -0.240334  0.954352
  0.371972   0.220446 0.00446256   0.28013  0.959902 0.0107258
 0.460929  0.133697 0.0827392 0.785553 0.485779 0.383308
0.0811044 0.0247885 -0.108624 -0.921504 -0.164949 -0.351598
-0.0958105    0.22081  0.0299877 0.0448466  0.995654 0.0816263
-0.130602 0.0612327 -0.164525 0.0500046 -0.181719 -0.982078
 0.368957   0.21918 -0.038588  0.255824  0.959186 -0.120479
  0.11515 0.0480651  0.163054 -0.201669 -0.091745  0.975147
 0.448503 -0.172367 0.0214204  0.701438 -0.708363 0.0787821
 0.426305  0.190835 0.0407375 0.573847 0.803355 0.159127
-0.329617  0.167336 -0.155923 0.0175687  0.351375  -0.93607
   -0.164756 -0.000543613    -0.112563 -0.825608  0.093162 -0.556499
-0.126185 -0.204611 -0.116705 0.0708174  -0.85778 -0.509115
  0.211974 -0.0681342  0.0464405 0.435635 0.888219 0.145907
  0.302108  -0.058308 -0.0256477 -0.723874   0.68204 -0.104052
  -0.37032 -0.0210158  -0.145004   0.34422 0.0623233 -0.936818
 -0.335457 -0.0441232  -0.105794  0.672404    0.3113 -0.671539
  0.40165 -0.154454 -0.141814  0.393695  -0.52991 -0.751133
-0.0137758  -0.217453  0.0437972  0.010124 -0.993196  0.116016
-0.0444736 -0.0758667  0.0988909 0.474806 0.763814 0.437203
 0.140774 -0.152812  -0.16637 -0.00147803   -0.267612   -0.963526
-0.0463206   0.151909   0.162854 0.0305657  0.190576  0.981197
  0.237371   -0.23052 -0.0337412 -0.0180823  -0.996224 -0.0849108
0.210192 0.199751 0.136665 -0.0519526   0.706954   0.705349
    -0.362   0.210837 -0.0896519 -0.274993  0.887575 -0.369581
-0.133306  0.171178  0.158703 0.0924116  0.457627  0.884329
-0.0124202  -0.160214    0.16001 -0.0101919  -0.311643   0.950145
-0.0153333    0.16404   0.158976 0.018251 0.346719 0.937792
-0.0970473   0.200142  -0.124265 0.0403539  0.794735 -0.605614
 0.012979 -0.217475 0.0437516 0.00800797  -0.992459   0.122316
-0.169544 -0.053837  0.130986 -0.66607 0.262119 0.698315
  0.445384   0.170316 -0.0528749  0.726672  0.659127 -0.193649
-0.235081 -0.127769 -0.157312 -0.0580987   0.091773  -0.994084
0.335663 0.209219 0.110518 0.182889 0.860193 0.476047
  0.282434    0.23016 -0.0428408 0.0132249  0.989687 -0.142632
0.00497764  -0.219039 -0.0249495  0.0108642  -0.998209 -0.0588213
0.0514705  0.211986 0.0821332 -0.00453026    0.964303    0.264764
 -0.478099  -0.107597 -0.0554473 -0.903652 -0.360704 -0.230879
-0.216556 0.0728626 0.0647576 -0.358071  -0.87447  0.327242
-0.24017  0.17085 0.159631 -0.00524914    0.347304    0.937738
 0.325203 0.0139553 0.0252067 -0.979728 -0.177431 0.0930129
 0.232752 0.0864489  0.101403  0.152527 -0.829398  0.537433
  0.214544   0.226188 -0.0589742 -0.0770796   0.983179  -0.165583
 0.0678715 -0.0347149  0.0388404 -0.882522  0.450291  0.135622
-0.352462  0.198561  0.123137 -0.234386  0.779863  0.580411
 -0.360827 -0.0117704  -0.134371  0.488213 0.0536373 -0.871075
 0.219151 -0.230365 0.0200659 -0.0588708   -0.99674  0.0551676
  -0.135184 -0.00435524   -0.159493 -0.191715  0.172791  -0.96612
-0.0293417  0.0778127 -0.0815574  0.325587 -0.893143 -0.310304
-0.458533 -0.158393 0.0137496 -0.781337 -0.617725 0.0890418
-0.355503  0.207754 -0.102833  -0.25086  0.855628 -0.452736
-0.241245 0.0759291 0.0391664 -0.0459479  -0.976953   0.208452
-0.322067   0.22644 0.0538397 -0.0544509   0.992604   0.108503
-0.0297334  -0.215483  0.0611806 0.0117368 -0.983924  0.178204
 0.452343 0.0602425  0.139867 0.564942 0.136362 0.813785
   0.452395 -0.00298752    0.145487  0.523762 -0.033151   0.85122
0.122903 0.029939 0.163749 -0.128084 -0.047823   0.99061
  0.394156 -0.0940064    0.16059   0.112818 -0.0796811   0.990416
 -0.479996  -0.113129 -0.0252887  -0.909836  -0.407521 -0.0782668
0.347725 0.114054 0.157776  -0.111328 -0.0265777   0.993428
  -0.103804 -0.00987986   -0.152046  0.502601  0.134392 -0.854009
 0.289109  0.208324 -0.123158 0.0433185  0.807629 -0.588098
 -0.392752 -0.0136219  -0.157058  0.0321917 -0.0394959  -0.998701
 0.393576 -0.122095 -0.157978   0.22859 -0.229019 -0.946201
 -0.338425 -0.0521331  -0.117926  0.598201  0.298964 -0.743489
 -0.186348 -0.0855906   0.141473 -0.371281  0.435639  0.819981
-0.0370668  -0.216448  0.0547075 0.0099834 -0.987565  0.156893
 0.208707 -0.229144 0.0286731 -0.0659734  -0.994878  0.0765861
 0.197632 -0.130271 -0.162745  0.134275 0.0554007 -0.989394
0.294906 0.136313 0.158797 -0.0123286 -0.0517448   0.998584
  0.452988 -0.0507329  -0.140718  0.593272 -0.135139 -0.793578
-0.0850226  -0.113828   0.164918  0.132837 0.0350222  0.990519
  0.13186 -0.160291 -0.164248 -0.00292406   -0.328659   -0.944444
  -0.24748  -0.080514 -0.0669056 0.0511701  0.933118 -0.355911
-0.285966 -0.231418 0.0310699 -0.00278307   -0.997624   0.0688386
 -0.167519 -0.0158798  -0.108272 -0.835391  0.242395 -0.493322
0.263847  -0.1217  0.15039 -0.00614815    0.355346    0.934714
 -0.064947     0.2091 -0.0961863 -0.00612943    0.931611   -0.363406
-0.406116 -0.195927 0.0771101 -0.477419 -0.833751  0.277363
-0.235132 -0.142027 -0.161772 0.0258189 0.0461114 -0.998603
 0.0734691 -0.0599981   0.123382 -0.620998  0.447747  0.643338
-0.0694263 -0.0507636  0.0951958 0.805689 0.464428 0.367657
 0.413856 -0.167647 -0.121126   0.47796 -0.618879 -0.623332
-0.199843 -0.227268 0.0418607 0.0622756 -0.989263  0.132211
    0.170188 -5.05761e-05     -0.08746   0.978344 -0.0394016  -0.203201
-0.0617819  0.0448072 0.00473846    0.837192   -0.546854 -0.00774361
  0.328891 -0.0639376   0.115072 -0.538342  0.404564  0.739267
 -0.324839 -0.0881176  -0.134366  0.324749  0.363293 -0.873245
-0.138032 0.0143948 -0.158014 -0.229794 0.0701491 -0.970708
-0.0465511 -0.0645981 -0.0479247  0.580093  0.799267 -0.157049
 0.172109 0.0821351  0.149102  0.355752 -0.286857  0.889468
 -0.28727 -0.211369  0.118532 -0.0204193  -0.856925   0.515036
 0.115295 -0.215647  0.076877 -0.0379739  -0.959246    0.28001
-0.235446 -0.146253  0.162725 -0.000236444  0.000138663            1
 0.271065  0.113813 -0.142987 -0.0718173  -0.412744  -0.908011
-0.315154 -0.136771 -0.159094 0.0196416  0.007026 -0.999782
   0.32525 -0.0151389  0.0321688 -0.97651 0.185119 0.110269
 0.334503 0.0947026 -0.144547 -0.322137 -0.258653 -0.910673
-0.185813  0.215004 -0.100417 0.0541962  0.920628 -0.386662
-0.232034   0.12113 -0.153754 -0.100524 -0.272526 -0.956883
-0.482424 0.0055021  0.102419 -0.874732 0.0307434  0.483631
 -0.462161  -0.147616 -0.0433248 -0.819402 -0.546091 -0.174252
  0.46379 0.0233941 -0.132785  0.663381 0.0721964 -0.744791
0.0874082  0.107279  0.164554 -0.168665 -0.096977  0.980891
 -0.328221 -0.0614252   0.110366 0.608891 0.414287 0.676475
  0.40157 0.0967265  0.159421 0.193306 0.111236 0.974812
 0.262091 0.0787717 0.0610451 -0.250584 -0.945452  0.208153
 0.459336 0.0963457 -0.119391  0.728387  0.260614 -0.633666
  0.465502 -0.0330298   0.129777   0.669602 -0.0933214   0.736834
   0.17826 -0.0772229   0.139915 0.466961 0.462061 0.753954
 0.184456  0.224804 0.0506669 -0.0772008    0.98544   0.151485
  0.471737  -0.126903 -0.0499589  0.870249 -0.456066 -0.186198
   0.194789    0.228837 -0.00533547  -0.0876773    0.996129 -0.00636359
 0.0721187 -0.0412754  0.0880682 -0.82095 0.454095 0.346178
 0.324782 -0.111573 -0.151123 -0.119014  0.211435 -0.970119
-0.115918 -0.222603 0.0161443 0.0384029 -0.998427 0.0408537
  0.308536 -0.0803514   0.110346 -0.464622  0.561148  0.685011
 0.405529 -0.205848 -0.021814   0.456602  -0.885763 -0.0833011
 -0.462748  -0.141759 -0.0602191 -0.814195 -0.520519  -0.25719
-0.254212  0.212478 -0.116455 -0.0217163   0.859876  -0.510041
-0.271358  0.151481 -0.161487 0.0337143 0.0696762    -0.997
 0.336329 -0.100916  0.149151 -0.224809  0.174468  0.958656
  0.468789 -0.0272996  -0.125288   0.741178 -0.0828219   -0.66618
-0.466598  0.139972  0.044663 -0.799323  0.566489  0.200434
 0.0737269 -0.0210022  0.0621651 -0.94074 0.265206 0.211362
-0.0948213  -0.220079  0.0395605  0.021562 -0.993895  0.108202
   0.18325 -0.0498178 -0.0801133  0.744427  0.604975 -0.282549
 0.202799 -0.127031  0.161358   0.05713 0.0990594   0.99344
-0.0208008 -0.0722455 0.00347057   0.27432    0.9615 0.0163433
 -0.365833  -0.208777 -0.0930858 -0.280565 -0.879452 -0.384509
0.284483 0.101203 0.130076 -0.154286 -0.583679  0.797192
-0.440617  0.108752 -0.136637 -0.515505  0.403716 -0.755823
 -0.355868 -0.0491209   -0.13762  0.414366   0.16047 -0.895851
-0.0825305   -0.21981 -0.0385625  0.021833 -0.994268 -0.104659
-0.445744  0.128519 -0.119564 -0.651402  0.455026 -0.607146
  0.177167 -0.0272755 -0.0547289  0.923799  0.349283 -0.156833
-0.137938  0.223538 0.0230693 0.0702659  0.995457 0.0642462
-0.0162699  -0.146749  -0.161884  0.0213768 -0.0883351  -0.995861
  0.212657   0.067284 -0.0299145  0.397498 -0.908358 -0.129929
-0.365949  0.194784  0.122527 -0.249874    0.7465  0.616685
-0.217589  0.144917 -0.163396 -0.0240138  0.0837292  -0.996199
0.0781495 -0.209068 0.0976945 -0.0223654   -0.91664   0.399087
   0.29684 -0.0760977 -0.0869448 -0.478504  0.734195 -0.481655
 -0.302393   0.228218 -0.0523543 -0.0793198   0.985983  -0.146786
 0.0586072   0.049141 0.00132486  -0.752704  -0.658357 0.00152306
-0.152333  0.217057 0.0807862 0.0836052  0.963061  0.255974
-0.0714019  0.0232005  -0.035626  0.959096 -0.253176 -0.126635
 -0.450193  -0.145046 -0.0938882 -0.746606  -0.48948 -0.450543
  0.304925   0.230597 -0.0317492 0.0758328  0.990065 -0.118407
-0.468893 0.0900189 -0.105841  -0.81351  0.305246 -0.495002
0.0912701 0.0713482 -0.154179 -0.394515 -0.164679 -0.904013
  0.479575  -0.114325 -0.0218834  0.909389 -0.401833 -0.107438
-0.0808513  0.0206323  -0.105876  0.894802 -0.117577 -0.430703
 0.167615  0.221533 0.0651068 -0.0689687   0.975531   0.208766
0.00574606  -0.140119  -0.161282 0.0228364 0.0526162 -0.998354
0.0845069 0.0311834 -0.124296 -0.853438 -0.142496 -0.501336
 -0.374336 -0.0859131   0.158192 0.0184025  0.023187  0.999562
   0.35806 -0.0101866   0.131362 -0.527132 0.0436917   0.84866
  0.174135  0.0031399 -0.0499783    0.993198 -0.00146172   -0.116432
 -0.2398  0.09157 0.110758 -0.0986735   -0.77171   0.628273
  -0.484223 -0.00556338  -0.0977267  -0.880244 -0.0172371  -0.474209
 -0.474322  -0.112236 -0.0665615 -0.878107 -0.379367 -0.291563
 -0.48804 -0.061153  -0.06553 -0.941031 -0.176264 -0.288776
-0.217259 0.0688632 0.0122267 -0.354248 -0.933401 0.0571886
-0.250031  0.128706 -0.156032 -0.0975673  -0.159896    -0.9823
 -0.178123 -0.0728242   0.136841 -0.511979   0.39768  0.761399
-0.192586  0.122173   0.16171 -0.174278 -0.104667  0.979118
  -0.14321 -0.0101789   0.154109 -0.446911 0.0650697  0.892209
   0.30124  -0.227569 -0.0582128 0.0613832 -0.980416 -0.187129
  0.222124 -0.0729657  0.0530339 0.277274 0.944256 0.177479
-0.0466969  -0.127231   0.161395  0.174197 0.0698347  0.982231
-0.287419 0.0699196 0.0501778 0.498075 -0.81329   0.3008
 -0.454675   0.165249 0.00711332  -0.74945  0.659972 0.0525437
0.243389 0.204036 0.132727 -0.0506538   0.751385   0.657917
-0.0585919  0.0577415  0.0715524  0.743488 -0.622711  0.243836
-0.312494 -0.159357 -0.159635 -0.116027 -0.230673 -0.966089
-0.310544  0.229637 0.0393054 -0.0495937   0.978685   0.199288
-0.334194 0.0431001  0.102284  0.710414 -0.316982  0.628359
  0.330231 -0.0248132 -0.0726089 -0.896503  0.238157 -0.373581
  0.211714 -0.0678955  0.0432962 0.439274 0.886985 0.142465
0.0858863 -0.152732  -0.16432 -0.0754073  -0.246407  -0.966228
 -0.254798 -0.0789237  0.0595999 0.140723 0.913365  0.38205
 0.260265 -0.171499  0.158965 0.0223125 -0.382698  0.923604
-0.246079  0.171314  0.159685 -0.0335216   0.349674   0.936272
-0.232666 -0.156724   0.16285 -0.0134585  -0.176996    0.98412
-0.356213 -0.219968 0.0609103 -0.235431 -0.947082  0.218193
  0.220348  0.0783589 -0.0829508  0.272901 -0.898468  -0.34392
0.0775216  0.139381  0.165894 -0.0438593   0.101378   0.993881
 -0.479353 -0.0709979 -0.0907453 -0.880552 -0.205502  -0.42708
  0.14229 -0.186266  0.147525 -0.0537506   -0.64144   0.765288
  0.148084 -0.0713664   0.161155 0.209979 0.190845 0.958899
 -0.144802 -0.0345031   0.156543 -0.397268 0.0275348  0.917289
  0.436491 -0.0161415   0.154755   0.385789 -0.0359195   0.921888
 -0.141458 -0.0221548  -0.156693 -0.351003 0.0711524 -0.933667
 0.249237 -0.221769 0.0889657 -0.0366654  -0.952722   0.301625
  -0.140245    0.224589 -0.00157932   0.0792288    0.996855 -0.00155657
 0.315497  0.148016 -0.160409 -0.0210798   0.116624  -0.992952
-0.00960344    -0.21836   0.0338116 0.0160118  -0.97745   0.21056
  0.486003  0.0437145 -0.0844566  0.911272  0.119659 -0.394036
0.0747548  0.197042 -0.128269 0.000842481    0.791121   -0.611658
 0.0488061  0.0635863 -0.0541728 -0.600946 -0.779936 -0.174827
  -0.155047   -0.225603 -0.00450036   0.066428  -0.997782 0.00418883
-0.41569 -0.19276 0.070153 -0.479883 -0.869343  0.118132
0.00292916  -0.135119   0.160592 0.0419893 0.0344483  0.998524
  0.480261  0.0680804 -0.0891402  0.880644  0.200554 -0.429237
  0.294906 -0.0706472  0.0653284 -0.579833  0.753097  0.310866
  0.40187 -0.017462  0.159632 -0.0218835 0.00844812   0.999725
0.373858 -0.03313 0.149852 -0.263044 0.0554498  0.963189
 -0.335091  0.0198422 -0.0861388  0.833781 -0.132082 -0.536063
-0.0874282  -0.217734  0.0560773 0.0157605  -0.98608  0.165525
0.476903 0.011481 0.113513  0.804667 0.0184467  0.593439
-0.0717789   0.201633   0.119037 0.00645757   0.849465   0.527605
 -0.268579   0.231923 -0.0239585 -0.0175563   0.997996 -0.0607945
  0.362705 -0.0217668  -0.137882 -0.466683 0.0829569 -0.880526
  0.194479  0.0574133 -0.0461276  0.649698  -0.74608 -0.145799
 -0.158545  -0.218712 -0.0759082 0.0801022 -0.971433 -0.223388
-0.466589 0.0728756  0.118929 -0.753227  0.244316  0.610704
   0.18357 -0.0413314 -0.0434194   0.81807  0.561708 -0.123475
 0.318376 -0.159588   -0.1593 0.0753376 -0.220083 -0.972568
 0.174531  0.215237 0.0962805 -0.0700658   0.923001   0.378365
 0.107547 -0.135961  0.169147 -0.0797823  -0.170897   0.982054
0.432845 0.133296 0.131571 0.556265 0.419541 0.717324
  0.40679 -0.156372 -0.137282  0.413477 -0.558389 -0.719193
  0.38785  -0.16002 -0.145595  0.339148 -0.523987 -0.781291
-0.100259 -0.208988  0.101537 0.0138499 -0.917026  0.398588
0.151983 0.148226 0.167322 0.0208024  0.199076  0.979763
  0.220846   0.221839 -0.0839168 -0.0587817    0.95776  -0.281498
-0.0597026  -0.199913    0.12231 0.0192629  -0.83018  0.557163
-0.345631 0.0743845 -0.139833  0.352053 -0.183988 -0.917718
  0.224961 -0.0851534   -0.10296  0.192935  0.830433 -0.522645
  0.173965 -0.0115692  0.0627454 0.968812 0.166703 0.183338
-0.0875251  -0.206802   0.106277 0.00683271  -0.898991   0.437913
  0.205023 -0.0631926  0.0148167  0.543039  0.839339 0.0248732
0.0831143 -0.196952  0.129609 0.0163623 -0.771356  0.636193
-0.256218 -0.161403  0.161522 0.0117739 -0.214983  0.976547
 -0.19082 0.0714101 -0.113478 -0.473586 -0.614835  -0.63063
0.158576 0.068203 0.154037 0.371181  -0.1685 0.913144
-0.121353 -0.207702  0.108425 0.0133702 -0.900358  0.434945
  0.435483  -0.185875 0.00220035  0.635734 -0.771621 0.0210576
-0.0715167 -0.0193259 0.00879745    0.973863    0.227132 -0.00130764
 -0.467353  -0.121125 -0.0796244 -0.831707 -0.416341 -0.367318
-0.129986  0.184414  0.148754 0.126413 0.636824 0.760576
 -0.299252 -0.0614121  0.0210587 0.692951 0.703244 0.158956
 -0.453921  -0.164393 -0.0302467 -0.766095 -0.629386 -0.130278
 0.175938 0.0122706 0.0365978  0.984106 -0.158189 0.0806995
-0.0508975 -0.0737933  -0.102836  0.519716  0.729731 -0.444284
  0.200855 -0.0832255   0.124631 0.299579 0.642633 0.705178
 -0.21075  -0.21999 0.0890157 0.0832314 -0.938112  0.336182
-0.34861  0.07353 0.142269  0.325802 -0.223994  0.918521
  0.204778   0.222802 -0.0743248 -0.0837968   0.968618  -0.234001
-0.466042  -0.12538 0.0790667 -0.818472 -0.451521  0.355292
  0.322221 -0.0382259 -0.0569306 -0.886276  0.364381 -0.285905
-0.0477316   0.065177 -0.0590467  0.600288 -0.776472 -0.191691
  0.191676 -0.0505752 0.00626471  0.716697  0.696606 0.0329599
 0.366743 -0.135231  0.159652  0.122624 -0.205393  0.970967
 0.294674 -0.150117  0.161302 0.0489415 -0.103817  0.993391
  0.218114  0.0693368 0.00877962  0.308385 -0.950656 0.0339458
-0.0346585  -0.219539   0.015906 0.00651878  -0.999311  0.0365399
    0.477 -0.122489 0.0140982  0.894795 -0.443873 0.0481538
   0.28821   0.225272 -0.0731156 0.0331622  0.968939 -0.245066
0.104168 0.047509 0.157516 -0.366806 -0.126586  0.921645
 0.0576997 -0.0960985   0.146432 -0.252379  0.455148    0.8539
-0.0574604  -0.153122   0.163245 0.0543143 -0.304695    0.9509
-0.436112  0.140487  0.122806 -0.608314  0.495497   0.62003
 0.0505185 -0.0767526  -0.109424 -0.444609  0.727708 -0.522269
 -0.070924   0.217799 -0.0503722 0.0211663  0.991641 -0.127281
-0.213497 -0.190423  0.147838 0.0398132 -0.620635  0.783088
 -0.490308 -0.0538905  0.0617592 -0.95322 -0.17549  0.24612
 0.104238 -0.171636  0.157962 -0.0731963  -0.469877   0.879692
 0.159743 0.0367513  0.137616  0.688208 -0.223204  0.690326
-0.0630788  -0.217476 -0.0513094 0.00216496  -0.990581   -0.13691
  0.460385   -0.14888 -0.0481928  0.789804 -0.585213 -0.183676
 0.164857 0.0348689  0.125688  0.793081 -0.312111  0.523077
 0.280795 -0.225557   0.07372 0.0195682 -0.969784  0.243178
0.165809 0.055539 0.138773  0.601255 -0.223453  0.767177
 0.469953 -0.103126 0.0924552 0.826244 -0.35076 0.440781
-0.182642 0.0940738  0.150864 -0.344584 -0.392158  0.852921
 0.382476 -0.216515 0.0211362  0.341109 -0.936118 0.0856069
  -0.43973  -0.179896 -0.0331605 -0.632906 -0.762377 -0.134949
  0.189524  -0.223916 -0.0610515 -0.105492 -0.979782 -0.169996
 0.334473  0.226166 0.0424008  0.15325 0.980237 0.125101
 0.0569136 -0.0519746 -0.0296409  -0.713939   0.695633 -0.0799106
-0.336832 0.0430201 -0.107379  0.689044 -0.244419  -0.68226
 0.445051  0.142668 -0.106204  0.670408  0.511032 -0.537958
-0.456277 0.0890011 -0.127171 -0.729112  0.257626 -0.634055
-0.378057  0.200753  0.103018 -0.33733  0.82653 0.450618
 -0.36744 -0.189806 -0.128481 -0.289096 -0.702231 -0.650611
0.0780078  0.139706  0.165957 0.00655952  0.0863651   0.996242
-0.0800329 -0.0397773   0.118174 0.831005 0.243741 0.500022
 -0.22001  0.151904 -0.163093 -0.0271353    0.16493  -0.985932
 0.485985 0.0620698 0.0724628 0.926603  0.16891 0.335971
 0.42056 0.144666 0.136933 0.476769 0.451723 0.754081
 -0.167781 -0.0165285   0.103514 -0.889661 0.0941005  0.446821
 0.384529 0.0434444  0.155829 -0.0977143 -0.0746409   0.992412
-0.333721  0.182242  0.147301 -0.17336 0.587835 0.790188
-0.441693 -0.173082 0.0575548 -0.689724  -0.68843  0.224379
 0.445594   0.15754 0.0850338 0.696004 0.599383 0.395372
 0.237452 -0.114778 -0.147568 0.0995679  0.441205 -0.891866
-0.010358  0.204534 -0.107256 0.0153994  0.901084  -0.43337
  0.336176   0.222624 -0.0657008  0.147176  0.962909 -0.226156
  0.493884  0.0521268 -0.0381227  0.977255  0.148641 -0.151258
 -0.098476 -0.0517746   0.154285  0.431424 0.0725629  0.899226
 0.395439 -0.158264 -0.142991  0.372425 -0.549523 -0.747879
 0.400951 0.0862906  0.159811  0.145711 0.0656325  0.987148
  0.326123 -0.0123148  0.0403713 -0.978941  0.152093  0.136168
0.406437 0.205376   0.0203  0.458019  0.886328 0.0681219
  0.116104 -0.0420057   0.162714 -0.168928 0.0767733  0.982634
 0.496722 0.0439951  0.011859  0.99145 0.115673 0.060379
  0.314786   0.230826 -0.0186431   0.110605   0.991577 -0.0673898
  0.270326   -0.22675 -0.0696241 0.00883658  -0.974582  -0.223858
 0.280911 -0.158621 -0.160752  0.010567  -0.19772 -0.980201
  -0.419519 -0.00679315    0.159802   -0.154918 0.000569775    0.987927
  -0.492601 -0.00794399  -0.0682025  -0.958784 -0.0133278  -0.283825
   0.37675   0.218472 -0.0150718     0.3011   0.952747 -0.0401579
 -0.12258  0.181218 -0.151382 0.0662274   0.57932 -0.812405
  -0.170666 -0.00463923   0.0840589  -0.928215 0.00836274    0.37195
  0.202772   0.229093 -0.0155503 -0.0876559   0.995701 -0.0299487
  0.26156  0.220029 0.0969843 -0.0497365   0.927229   0.371176
-0.0397967  0.0867476   -0.12172  0.308653 -0.724531  -0.61627
 0.259054 -0.199309  -0.13903 0.0313551 -0.731476 -0.681146
 -0.441431 -0.0795697  -0.145259 -0.538536 -0.217672 -0.814001
-0.164292  0.013293  0.117602 -0.829823 -0.120988  0.544753
-0.0912164  -0.122881   0.167155 0.0315687 0.0258549  0.999167
-0.495035 0.0368629 0.0422917  -0.9802 0.132586 0.147065
0.0481227  0.109349  0.153117 -0.185762 -0.319856  0.929077
-0.206399 -0.129968 -0.161545 -0.0522467   0.107353  -0.992847
-0.160428 0.0394121  0.138585 -0.611381 -0.206829   0.76383
 -0.075582 -0.0438749   0.107705 0.836786 0.328379 0.438128
 -0.14923 -0.214007 -0.092556 0.0969063 -0.950229 -0.296097
   0.47649  -0.119149 -0.0376314  0.898143 -0.416659 -0.140478
-0.0146208  -0.193229   0.132335 0.00539765  -0.754064   0.656778
0.0777123 -0.196295  0.130205 0.0399157 -0.773487  0.632554
 0.0554719 -0.0548024 -0.0337036  -0.680962   0.725504 -0.0996712
 0.207305  0.228388 -0.035787  -0.084144    0.99256 -0.0880063
  0.163642 -0.0296407   -0.12628  0.815356 0.0753853 -0.574032
-0.196883 -0.146176  0.164841 -0.0116218  -0.117393   0.993018
 -0.216069   0.223113 -0.0768998 0.0427252  0.967404 -0.249607
-0.0651604 -0.0402716  0.0239301  0.863308  0.502072 0.0512115
 -0.295459 -0.0845287  -0.105694  0.358211  0.668252 -0.652015
  -0.154007 -0.00964306    0.141063 -0.713569 0.0301226  0.699937
-0.0609127  0.0466627  0.0153237  0.822204 -0.568385 0.0303203
  -0.176262 -0.00413647  -0.0253376 -0.986789 0.0736329 -0.144309
  -0.267584   -0.232828 -0.00197736 0.0056438 -0.999859 0.0158235
0.0654076 -0.119895  0.162874 -0.107586 0.0571184  0.992554
0.0835585  0.219072 -0.043681 -0.0150725   0.992272  -0.123165
  0.306132 -0.0533001 -0.0233406  -0.785008   0.612959 -0.0896832
 -0.250343 -0.0896404   0.102812 0.0367674  0.799511  0.599525
 0.0205702 -0.0729722  0.0235422 -0.200656  0.974415  0.101257
 0.462815  0.100862 -0.110055  0.785994  0.278326 -0.552039
 0.123083  -0.14353 -0.168379 -0.0493143  -0.186954   -0.98113
   0.32474 -0.0195901   0.037268 -0.963603  0.239131  0.119524
-0.0514025   0.149557   0.163347 0.0427587  0.150538  0.987679
-0.00762484   -0.208374   -0.095121 0.0082044 -0.940156 -0.340646
-0.112341 -0.208394   0.10495 0.0175343 -0.905451  0.424088
  -0.231672   -0.231424 -0.00688148  0.0393935  -0.999223 0.00119917
 -0.491482 -0.0411837  0.0646404 -0.960116 -0.121232  0.251954
0.0966976 -0.185599 -0.146139 -0.010882 -0.652086 -0.758067
   0.177111  -0.0117462 -0.00598396 0.981449 0.187318 0.040875
-0.126697  0.171162 -0.158232 0.0661998  0.489702 -0.869373
 -0.494619 -0.0110962 -0.0563174 -0.973753 -0.018648 -0.226843
-0.344188  0.190286  0.137266 -0.258781  0.689378  0.676602
  0.175028  0.0127381 -0.0534522   0.987301  -0.130033 -0.0912594
  0.459552  -0.130655 -0.0924125  0.745171 -0.476473 -0.466576
-0.138836 -0.137855 -0.169408 -0.00817485     -0.1688   -0.985616
0.0606841  0.217124 0.0531376 -0.00906467    0.990987    0.133652
  0.39315   0.16282 -0.141093  0.356578  0.478834 -0.802229
 0.425058  0.193199 0.0331706 0.562309 0.817315  0.12572
 0.0317416 -0.0731529 -0.0597558 -0.320445  0.931569 -0.171737
 0.466693 0.0590057 -0.122271  0.732205  0.148284 -0.664746
  -0.497956 -0.00140504   0.0372515 -0.992869 0.0133417  0.118459
 0.484685  0.100863 0.0169475  0.931358   0.35683 0.0724217
 0.284364  0.077925 0.0759885 -0.454172 -0.823378  0.340259
-0.289455  0.126612  0.154208  0.061495 -0.185069    0.9808
 0.184507  0.111437 -0.159291  0.066425  -0.25895 -0.963604
 0.145635 -0.127593  0.170378  0.0068104 -0.0833517   0.996497
 -0.378241 -0.0491981  -0.153441  0.156745 0.0608427 -0.985763
 0.462576 0.0824786 -0.121363  0.728324  0.216614 -0.650094
-0.00764188   -0.153491   -0.161219 0.0292274  -0.20994 -0.977277
-0.0555411   0.180441   0.149629 0.00682717   0.575931    0.81747
 0.464897 -0.147845 0.0123633  0.799924 -0.598927 0.0375214
   0.375919   -0.219031 -0.00994962    0.28899  -0.956556 -0.0385431
0.484492 0.100309 0.025842 0.926834 0.359493 0.108367
  0.295639  -0.229112 -0.0478143 0.0492564 -0.987963 -0.146639
  0.378668   0.209893 -0.0736636  0.329037  0.894827 -0.301693
  0.189084 -0.0526309 -0.0574358  0.692665  0.698132 -0.181182
 0.109922 0.0467591   0.16094 -0.283671 -0.114842   0.95202
   0.349839    0.226153 -0.00904091   0.194329   0.980341 -0.0341789
-0.383054 -0.195166  0.110098 -0.358302 -0.787853  0.500906
  0.108626 -0.0143362  -0.156487 -0.486714 -0.115771 -0.865856
 0.0634243 -0.0424786  0.0210475 -0.815983  0.569794 0.0974996
   0.44479 -0.0654286   0.145484   0.495444 -0.0815625   0.864802
-0.131596 -0.223019 0.0275467 0.0478075 -0.995903   0.07676
  0.485752  0.0299121 -0.0887382  0.903872 0.0738146 -0.421387
-0.0778124 -0.0186325  0.0840538 0.957535 0.171516 0.231754
  0.140576 0.00777706   0.156596  0.366788 -0.110057  0.923771
0.0557862  0.205847  0.105576 -0.005199  0.907751  0.419477
-0.0288302   0.216149  0.0556355 -0.00733806    0.990278    0.138906
-0.0707486 -0.0310144 -0.0493604  0.914621  0.361967 -0.180134
-0.421133 -0.192847 0.0552267 -0.397215 -0.855298  0.332695
 0.153965 -0.223952 -0.037799   -0.03144  -0.994831 -0.0965532
 0.292753 0.0672568 0.0488165  -0.62781 -0.764312  0.147247
 -0.156573 -0.0185769   0.136584 -0.754108  0.147394  0.639997
  -0.41502   0.198305 -0.0431477 -0.479636  0.865771 -0.142794
0.117255 0.169773  0.15931  0.35929 0.258794 0.896625
 -0.339089 -0.0429133    0.11233 0.646945 0.320051  0.69212
0.0602105  0.162411  0.160847 -0.0231543   0.313925   0.949166
 -0.452276 -0.0467792   0.142467 -0.575507 -0.118813   0.80912
  0.331241  0.0116567 -0.0674699 -0.932266  -0.11185 -0.344048
   0.151454 0.000527753    0.144571  0.633687 -0.119999  0.764225
 -0.173486 -0.0150883 -0.0717723 -0.916917  0.233744 -0.323461
-0.46165 0.040638 0.134761 -0.659426  0.131836  0.740119
-0.262399 0.0838586 0.0830798  0.138259 -0.871314  0.470847
  0.261731  0.0820427 -0.0743126 -0.245639 -0.918107 -0.311032
0.0964202 -0.157655 -0.163691 -0.0287073  -0.308926  -0.950653
-0.0234318 -0.0765519 -0.0673103  0.270601  0.933893 -0.233707
  0.093049 -0.0564647    0.15091 -0.462584  0.212236  0.860798
-0.159827 -0.019947   0.13052 -0.750124   0.17651  0.637305
-0.215907  0.069468 0.0423187 -0.383755 -0.898821  0.211784
0.111419 0.171521  0.15822 0.155255 0.407282  0.90001
 -0.486653  -0.035948 -0.0842983 -0.915821 -0.105957 -0.387357
 -0.326754  0.0348721 -0.0703277  0.835746 -0.309437 -0.453626
 0.113184 -0.141772  0.168679 -0.069067 -0.218456    0.9734
 0.128361  0.197088 -0.133548 0.0574559  0.779031 -0.624347
 0.110914 -0.215714  0.075378 -0.0346191  -0.961811   0.271515
-0.459482 0.0785652 -0.127066 -0.726014  0.213525  -0.65369
-0.344817  0.105769  0.154509   0.10181 -0.116104  0.988005
 -0.168857  -0.217391 -0.0851043 0.0790932 -0.960347 -0.267353
  0.199927 -0.0907767  -0.136186  0.295293  0.547097 -0.783254
-0.373601  0.216022 0.0512066 -0.305385  0.937187  0.168586
 0.299602 0.0884237  0.117536 -0.358842 -0.591373  0.722156
-0.0619042 -0.0951972  -0.147782 0.369244 0.418716 -0.82966
  0.18314 -0.203252 -0.128104 -0.0543279  -0.799865  -0.597717
 0.124348 -0.222744 0.0233668 -0.0578868  -0.995496  0.0750833
-0.188465 -0.183685  0.152322 0.0622899 -0.530707  0.845263
 0.0887187 0.00248714  -0.125445  -0.884577 -0.0473342  -0.463987
-0.0312837  -0.203362   -0.11157 -0.00215773   -0.890356   -0.455261
  0.14158 -0.172043 -0.158179 0.00332141  -0.465336  -0.885128
 0.442758  0.168446 0.0697213 0.680489 0.660731 0.316811
0.115242  -0.1997 -0.12727 0.0357253 -0.794126 -0.606702
-0.465537  0.105627  0.101032 -0.788422  0.378741  0.484713
 0.0559242  -0.220071 -0.0124018 -0.00481001   -0.999537  -0.0300405
 0.266349 0.0787009 0.0626802 -0.304401 -0.930615  0.203211
 0.0915518  -0.210461 -0.0938599 -0.0120802  -0.944858  -0.327258
  0.142829  -0.224173 -0.0171388 -0.0404162  -0.997239 -0.0622919
-0.451134  0.167588 0.0366363 -0.737088  0.658661  0.151215
 -0.389866   0.211161 -0.0489741 -0.370478  0.915242 -0.158364
  -0.46344   0.135968 -0.0704821 -0.804291  0.508111 -0.308122
 -0.160304 -0.0519966  -0.145339 -0.519751  0.202593 -0.829949
 0.259305  0.082489 0.0758715 -0.201982 -0.927005  0.316016
 0.427474 -0.161116 -0.113515  0.566572 -0.598937 -0.565925
0.0223723 0.0876267 -0.110138 -0.194298 -0.830394 -0.522201
 -0.186693 -0.0446034  0.0249458 -0.82152 0.553538 0.136753
-0.283018  0.200483  0.136331 -0.0349435   0.730565   0.681948
-0.0665958 -0.0476018 -0.0730792 0.750072 0.640689 -0.16404
 -0.12203  0.118592 -0.171246 0.0336047 0.0103234 -0.999382
  0.492842 -0.0207683 -0.0629061   0.959327 -0.0850437  -0.269182
 0.120207 -0.213091 0.0893382 -0.0366985  -0.937535   0.345951
0.0893531  0.217217 0.0603028 -0.0126594   0.986049   0.165975
   0.09031 -0.0315297   0.136771 -0.699698  0.119326  0.704403
 0.0725463  -0.212537 -0.0819732 -0.00954263   -0.967939   -0.251004
0.0958367 0.0575184 -0.152914 -0.457565  -0.12659 -0.880119
 0.206299 0.0738907 0.0899764  0.426367 -0.814806  0.392814
  0.22784  0.190463 -0.147786 0.0323753  0.575089  -0.81745
  -0.237535     0.23174 -0.00206957  0.0292055   0.999519 -0.0103901
0.0688705  0.048632 0.0900116 -0.791447 -0.538643  0.288921
-0.144928  0.223577 0.0330607 0.0725756  0.993662 0.0858427
   0.193291   -0.228877 7.99215e-05 -0.0774604  -0.996989 -0.0034501
  0.130395 -0.0872006  -0.167739 0.0353515  0.122283 -0.991865
   0.150574 -0.00626892   -0.145165   0.666096 -0.0589209  -0.743535
 0.327982  0.103939 -0.147838 -0.215705 -0.314635 -0.924379
 0.441243 0.0348209 -0.151436  0.475877 0.0706962 -0.876666
 -0.379628 -0.0927491   0.159551 -0.00950249  -0.0640128    0.997904
-0.00222081   -0.211795  -0.0800421 0.0137542 -0.970138 -0.242165
 0.047393 -0.167208  0.158004 -0.0116991   -0.38994   0.920766
  0.37508  0.112776 -0.160124 0.0507856  0.111787 -0.992434
 -0.215651  0.0728305 -0.0649032 -0.358715 -0.862692 -0.356491
 0.279216 0.0765934 -0.063622 -0.414448  -0.86121 -0.294195
-0.143435 -0.131154 -0.169855 -0.00380498   -0.117678   -0.993044
-0.138721  0.217465 0.0750056 0.0818148  0.969967  0.229064
 0.337367 -0.199206    0.1279  0.203532 -0.742066   0.63868
0.371989 0.196475  0.11646 0.310074 0.768491 0.559711
 0.189407 0.0482753 0.0188256  0.736626 -0.675768 0.0268251
0.442863  0.04932 0.149228  0.460085 0.0916994  0.883127
 -0.198846 -0.0596889  0.0458885 -0.611351  0.740779  0.278382
-0.238954  0.183414  0.153482 -0.00473644    0.508956    0.860779
-0.373645  0.174792 -0.140933 -0.292483  0.603967 -0.741402
   0.34034 -0.0476325   0.118635 -0.58228 0.269497 0.767021
  -0.3174 -0.195297  0.138188 -0.105998  -0.69952  0.706708
-0.177526  0.173855  0.158565 -0.0395588   0.459206   0.887449
0.0836607 -0.182716 -0.148184 -0.0179427  -0.610523  -0.791795
 0.204274 0.0743846 0.0954795  0.447023 -0.782164   0.43404
-0.0179937  -0.215139  0.0635448 0.00924671  -0.981579   0.190833
  0.149376 0.00778345   0.147709  0.583769 -0.123306  0.802502
 -0.46513 -0.116398  0.092651 -0.804442 -0.410108  0.429749
  0.302663 -0.0725481 -0.0852476 -0.547505  0.697011 -0.463049
-0.0717056 -0.0191926  0.0146518   0.974987   0.222228 0.00385833
  0.325095 0.00582184 0.00633214  -0.996321 -0.0722581  0.0460884
 -0.45561 -0.147346 0.0739463 -0.762408  -0.55773  0.328134
-0.0839489  0.0339272   0.123532  0.785344 -0.203227   0.58475
 0.452868 0.0703948  0.137319  0.58744 0.173846 0.790375
  0.45665  0.158083 0.0365855 0.786606 0.599418  0.14815
  0.42922 0.0406295  0.157133  0.326025 0.0193169  0.945164
 0.472971 -0.121856  0.054208   0.86251 -0.444327  0.242176
-0.0225668  0.0711964 -0.0121391  0.303967 -0.950922 -0.057897
 -0.346992 -0.0699627   0.138969 0.384673 0.242078 0.890744
 0.493411 0.0448006 0.0491359 0.965903  0.10153 0.238164
-0.142615 -0.207093  -0.11242   0.09828 -0.874072 -0.475751
 0.0389955 -0.0809441  -0.105914 -0.339941  0.801738 -0.491586
-0.266697 -0.198747 -0.139433 -0.000316733    -0.713204    -0.700957
-0.317292  0.220087 0.0876554 -0.119098  0.947161  0.297829
-0.189648 -0.217449 0.0923655 0.0408777 -0.943753  0.328113
   0.492796   -0.069528 0.000617125    0.972999   -0.230808 0.000757038
 -0.151622    0.22412 -0.0318017  0.0489389   0.994966 -0.0874511
-0.475159 0.0743197 0.0999771 -0.841793  0.255891  0.475294
 0.115721 0.0895793  0.168251 -0.0297845 0.00790338   0.999525
0.0732316 -0.157926  0.162878 0.00912418  -0.298417   0.954392
 -0.0862486 -0.00279709   -0.117652  0.878951  0.119643 -0.461661
 -0.446394 0.00984438  -0.149387  -0.467824 0.00361338  -0.883814
-0.0924964  -0.203016   -0.11661 0.0228146 -0.862985 -0.504714
    0.486555    0.0980225 -0.000790005   0.940623   0.339418 0.00480973
  0.293789 -0.0933798   0.121696 -0.279664  0.576343  0.767865
  0.46947  -0.10345 0.0934214  0.827409 -0.348785  0.440163
 0.346174 -0.216287 0.0862896  0.221062 -0.916804  0.332569
0.0147449 0.0831437 0.0909914 -0.143134 -0.914018  0.379585
-0.225637 -0.214051  0.110903 0.0917484 -0.899899  0.426337
-0.306609 -0.151297 -0.160902 -0.0323356 0.00641216  -0.999456
-0.349611 -0.195427 -0.128538 -0.225975 -0.743006 -0.629982
 -0.180471 -0.0300273 -0.0291905 -0.905779  0.403049 -0.130823
-0.117776  0.222017  0.029271 0.0646336  0.994782 0.0789352
 0.398799 0.0956859 -0.159527  0.219473 0.0877966  -0.97166
  0.20898 0.0929568 -0.133542  0.262662 -0.610503 -0.747191
 0.0208711   0.207584 -0.0983982 0.000615673    0.929047    -0.36996
-0.190769  0.219947 0.0819275 0.0609078  0.960733  0.270708
  0.352852 -0.0297241   0.127872 -0.567893 0.0980433  0.817243
0.419153 0.162918 0.121157 0.517265   0.5821 0.627372
  0.432877 -0.0157049  -0.157153    0.33804 -0.0535331  -0.939608
-0.0504076 -0.0787819   0.113742 0.469583 0.677359 0.566283
 0.239514 -0.196779   0.14223 -0.0209854  -0.681826   0.731214
 0.486372 0.0958705 0.0183444  0.941386  0.329698 0.0713516
 -0.209324  0.0680309 -0.0505989 -0.434385 -0.862235 -0.260499
-0.420017  0.194058 0.0524347 -0.543705  0.817331  0.190669
  0.425381 -0.0200174  -0.158669   0.224916 -0.0727065  -0.971662
-0.00569858   0.0793275  -0.0685185 0.0617722  -0.96825 -0.242233
  0.243854   0.080454 -0.0683372  0.043529 -0.955277  -0.29249
  0.468732  -0.142087 0.00667951   0.827922  -0.560768 0.00919252
  0.271654  -0.230212 -0.0455531 -0.0141315  -0.992592  -0.120667
   0.15542   0.225597 0.00423771 -0.0665458   0.997777 0.00350171
 0.0401418 -0.0652464 -0.0266082 -0.470838  0.879918 -0.063681
-0.356755  0.221677  0.047682 -0.218125  0.965524  0.142072
 0.284742 0.0699229 0.0311862  -0.53109 -0.838656  0.120825
  0.297266 -0.0855287  -0.109408 -0.367353  0.651497  -0.66378
  0.196868   0.228886 0.00885438 -0.084059  0.996135  0.025467
 -0.334753 -0.0518264   0.111298 0.653204 0.367955 0.661766
-0.395061  0.193338 -0.100242 -0.399949  0.792408 -0.460577
-0.0274621 -0.0720277  0.0474436 0.336099 0.927588 0.163152
 -0.285215 -0.0836581 -0.0955648 0.326809 0.749295 -0.57598
-0.393107  0.156976  0.145444 -0.375886  0.501105  0.779489
 -0.112938   0.216557 -0.0715637 0.0504453  0.973052 -0.224999
 -0.310607   0.229582 -0.0387493 -0.0986854   0.990553 -0.0952158
 -0.494401 -0.0536369  0.0340637 -0.974699  -0.17223   0.14247
-0.0199015   0.166047  -0.158117 -0.0540861   0.253898  -0.965718
-0.347487 -0.105636  0.154841 0.0976211 0.0611446  0.993344
  0.175305  -0.216346 -0.0918285 -0.0507402  -0.949741  -0.308898
0.404166 0.185763 0.105166 0.464971 0.732251 0.497605
0.213554 0.134365 0.162422  0.0976337 -0.0542911    0.99374
-0.0189363   0.215577  0.0603449 -0.0167712   0.987455   0.157009
 0.260399   0.23034 0.0413903 -0.0345632   0.991732   0.123585
 -0.475206 -0.0595747  -0.106338 -0.828374 -0.163898 -0.535663
-0.266713 0.0910128  0.106536   0.13181 -0.777038  0.615498
  0.070502 -0.0406297 -0.0777855 -0.857358  0.446447  -0.25617
  0.387663   0.210743 -0.0569863  0.363223  0.907734 -0.209969
-0.0677761 -0.0707805   0.124667 0.580163 0.479075 0.658709
 0.111417  0.113212 -0.169867 0.000140873 -0.00266828   -0.999996
  0.486707  0.0593657 -0.0714366  0.929737  0.174666 -0.324163
  0.230754 -0.0774031 -0.0620938  0.162975  0.961754 -0.220153
 -0.15895  0.219565 -0.071943 0.0632305  0.972955 -0.222173
-0.00874355   -0.217822   0.0404477 0.00339511   -0.99408   0.108593
 0.257406 -0.227009 0.0673037 -0.0232957  -0.975842    0.21723
  0.362778  -0.216413 -0.0679958  0.259912 -0.934331 -0.243867
-0.0939537  0.0692569   0.155133  0.365225 -0.172463  0.914804
 -0.290125   0.231323 -0.0279254  -0.060895   0.995827 -0.0679767
-0.108822 -0.145954 -0.167232 0.0483826 -0.227092 -0.972671
-0.303397  0.221933 0.0852243 -0.0850117   0.958043   0.273727
  0.333748 0.00813704 -0.0764512  -0.920217 -0.0668019  -0.385666
-0.411452 -0.110798  0.155486 -0.298295 -0.205737  0.932037
-0.364111  0.181296 -0.139327 -0.278772   0.63596 -0.719612
 0.0102196   -0.21775 -0.0407907 0.00889645  -0.995987 -0.0890519
 0.0449599 -0.0678388 -0.0655194 -0.469064  0.849961 -0.239888
 -0.136998  -0.214544 -0.0868356 0.0750061 -0.955525 -0.285212
 0.458471  0.157924 -0.016092   0.779566   0.623814 -0.0559656
 -0.221797 -0.0941115  -0.126813 -0.156776   0.62452 -0.765112
  0.137909 -0.0544203  -0.161852  0.164158 0.0260089 -0.986091
  0.202729  0.0624789 -0.0369678  0.533155 -0.832678 -0.149643
 0.319974 -0.224698 0.0673582   0.11448 -0.966904  0.228013
-0.108334   0.03168  0.157953   0.330964 -0.0693675    0.94109
-0.368617  -0.10228 -0.158576 -0.0384162 -0.0370923  -0.998573
  0.281202   0.231974 -0.0197403 0.00149775   0.997637 -0.0686954
 -0.188267   0.227689 -0.0200693 0.0687527  0.996724 -0.042587
 0.193384  0.140654 -0.164694  0.039543 0.0574932 -0.997562
 0.485928 0.0764086 0.0601985 0.931267 0.232665 0.280373
    0.354924 -0.000563312    -0.126693 -0.610967 0.0305805 -0.791065
  0.321203 -0.0318821  0.0390301 -0.920757   0.36658   0.13351
 0.0685426  0.0282906 -0.0113409  -0.926713  -0.375017 -0.0237704
 0.391527 0.0929689  0.160424  0.104411 0.0553331  0.992994
   0.27017  0.0751924 -0.0372624 -0.355722 -0.923115 -0.146018
 -0.396492    0.19667 -0.0912236 -0.411355  0.820147 -0.397676
-0.439468 -0.179734  0.035338 -0.659253 -0.736417  0.151906
-0.225023 -0.122036 -0.155923 -0.0555845    0.16501  -0.984724
-0.0405369   0.161435  -0.160471 -0.000340668     0.243357    -0.969937
 -0.226622  0.0721172 -0.0268462 -0.227336 -0.963275 -0.142898
  -0.491707 -0.00703835   0.0719596  -0.958135 -0.0180654   0.285746
 0.333607 0.0913256 -0.142102 -0.353552 -0.268312 -0.896108
-0.0775878 -0.0909097  -0.153218  0.316441  0.295158 -0.901525
   0.400803 -0.00506161    0.159267   -0.02371 -0.0254391   0.999395
 -0.49336 0.0589678 0.0337324 -0.968271  0.215907  0.125841
 0.296582  0.131116 -0.157163  0.0164751 -0.0106966  -0.999807
 -0.33755  0.227173 0.0281717 -0.105244  0.991984  0.069938
  -0.13019    0.22282 -0.0282202 0.0520091  0.997033 -0.056739
 -0.231257 -0.0845662 -0.0964464  -0.11941  0.849598 -0.513735
0.202342 0.126578 0.161849  0.121109 -0.115099  0.985944
  -0.485851  -0.0992416 -0.00807889 -0.938402 -0.344423 -0.027818
 0.228464 -0.115661 -0.149872 0.0824729  0.395117 -0.914921
 0.447837  0.117147 -0.124426  0.622374  0.375705 -0.686656
 -0.292191 -0.0970024   0.126295 0.240373 0.587939 0.772366
-0.316086  0.166007   0.15819 -0.056963  0.341547  0.938137
 0.028577 -0.132779 -0.160874 -0.0990362  0.0434987  -0.994133
  0.32386  0.021788 0.0305785 -0.959632 -0.259797  0.107759
0.0734868  0.176525  0.153297 0.00483393   0.527702   0.849416
0.199183 0.172113 0.159588 0.0147673  0.387768  0.921639
 -0.314129 -0.0536555 -0.0617462  0.737015  0.560207 -0.378123
 0.385061  0.203396 -0.089782  0.343936  0.855203 -0.387733
 0.133181 0.0181084 -0.160988   0.125284 -0.0951729  -0.987546
 0.421414  0.166175 -0.114704  0.524335  0.604482 -0.599728
  -0.499232 -0.00665656   0.0117223  -0.999867 0.00936789  0.0133208
0.0603071 0.0818241  0.133755 -0.434588 -0.528375  0.729351
 0.0453202   0.219943 -0.0103401 0.00697812   0.999596 -0.0275668
 -0.496889 -0.0437465 -0.0117487  -0.992317  -0.113447 -0.0493713
 -0.18821 -0.069556  0.113747 -0.558886  0.537081  0.631815
-0.256396  0.075646 0.0197375   0.16909 -0.979365   0.11069
 0.287067  0.212994 -0.113782 0.0422594  0.858908 -0.510383
 0.241902  0.223506 0.0801928 -0.0572618   0.958311    0.27993
-0.0661802  0.0392666  0.0422121    0.89012  -0.451781 -0.0598354
 -0.330979 -0.0971439   -0.14412  0.228513  0.251563 -0.940477
 0.433296 -0.108172  0.143474  0.587649 -0.166196  0.791863
-0.484316 0.0431253 0.0919968 -0.896513  0.154976  0.415027
   0.498772 -0.00121732   0.0256604   0.993137 -0.0175989   0.115622
  -0.177327  -0.0135671 -0.00854385  -0.981551   0.179509 -0.0658314
-0.442063  -0.17147 0.0633949 -0.691235 -0.674928  0.258197
  0.347997 -0.0459879   0.127547 -0.512173  0.216952   0.83103
 0.392731 -0.158161  0.144639  0.347911 -0.480348  0.805123
-0.294549 0.0849579  0.105646  0.328299 -0.694145  0.640611
 0.180507 0.0409185 0.0709965  0.820123 -0.536613  0.198606
 -0.185443  0.0487225 -0.0645828 -0.697609 -0.634814 -0.332193
-0.0556883    0.21089   -0.08747 -0.00185217    0.951796   -0.306727
  -0.17036  -0.225954 -0.0270038  0.0737534   -0.99646 -0.0403557
 -0.450466 -0.0861671  -0.135636 -0.586932 -0.255945 -0.768116
-0.170718 -0.210155 -0.110646 0.0604085 -0.889876 -0.452184
 0.343526 0.0126526 -0.106943  -0.788312 -0.0695963  -0.611327
0.411325 0.115251 0.154331 0.335245 0.243158 0.910211
 -0.449153 -0.0368972  -0.146158  -0.525265 -0.0644942  -0.848491
-0.320889 0.0707006 -0.110443  0.502863  -0.44866 -0.738805
-0.196837  0.162492 -0.162606 -0.0506544   0.303406  -0.951514
 0.094702 0.0580213 -0.152376 -0.457243 -0.128948 -0.879944
-0.0481929 -0.0624031  0.0531053 0.602834 0.777142 0.180669
 0.456128 -0.131862 0.0981075  0.738485 -0.482974  0.470507
-0.279489   0.21987 0.0964235 -0.0351893   0.936451   0.349029
 -0.420363  -0.192134 -0.0596564 -0.525324 -0.817657 -0.235525
  0.482502  0.0973964 -0.0498171  0.924041  0.326894 -0.198213
 -0.331366 -0.0190228   0.072333 0.876146 0.178896 0.447621
-0.0656983  -0.204938   0.108884 0.0113028 -0.887093  0.461452
  0.41004  0.150092 -0.139695  0.381635  0.462041 -0.800545
  -0.499763 -0.00312101  0.00178731  -0.998578  0.0311157 -0.0432973
 -0.170222 -0.0962887   0.158345 -0.243695  0.218093  0.945012
-0.319297   0.22415 -0.069242 -0.109138  0.968204 -0.225099
 0.0416996 -0.0775837     0.1006 -0.369813  0.803328    0.4668
 0.387288 -0.197051 -0.101349  0.384917 -0.802313 -0.456216
0.0430881  0.177092 -0.151955 -0.0268573   0.500887  -0.865096
 0.0713589 -0.0180947 0.00917731  -0.96292  0.265892 0.0456817
 0.225868  0.179603 -0.155594 -0.00690938    0.405383   -0.914121
 -0.416397 -0.0232758  -0.159786   -0.193791 -0.00865061   -0.981005
-0.0645453 -0.0443037  0.0554249 0.842414 0.512777 0.165527
-0.218649  0.211273  0.117293 0.0800713  0.843992  0.530346
-0.181485 -0.161089  0.163755 0.0158714 -0.339102  0.940616
  -0.263714     0.23234 -0.00950658 -0.0133004   0.999613 -0.0244165
 -0.34375 0.0346688 -0.116016  0.657022 -0.162472 -0.736155
-0.389919  0.139823  0.154199 -0.301975  0.313721  0.900217
 -0.334702 -0.0573848    0.11718 0.588661  0.35543 0.726049
-0.0522717 -0.0830129   0.126186 0.421124 0.601451 0.678905
-0.198062  0.205066  0.128234 -0.0173412   0.831435   0.555352
 0.365339  0.204222 -0.103881  0.270207  0.840925 -0.468864
-0.444646  0.148959  0.100234 -0.680945  0.576348  0.451815
-0.292416  0.170514  0.157945 -0.0241753   0.330335   0.943554
   -0.38104   -0.217806 -0.00347115   -0.310275   -0.950646 -0.00130308
 0.496185 0.0312636 0.0356015  0.983351 0.0746575  0.165671
-0.366157  0.148124  0.157838 -0.170993  0.321394  0.931379
-0.242234  0.127063  0.156231 0.0538805 -0.121184  0.991167
-0.00154319    0.208691  -0.0936404 0.0127354  0.941506 -0.336755
 -0.437372  -0.175164 -0.0654253 -0.642415 -0.718562 -0.266407
  0.212691 -0.0661603 -0.0177585   0.412708   0.910688 -0.0178572
0.0358267 -0.219873 0.0054046 -0.0114228  -0.999599 -0.0259145
0.0232075  0.199658  0.119584 -0.00878979    0.845459    0.533968
  0.198496   0.225984 -0.0502498 -0.0919962   0.986257  -0.137239
-0.153314  0.223948 0.0366895 0.0732415  0.993185 0.0906636
-0.0555972   0.199858  -0.121179 -0.0132258   0.815752  -0.578251
-0.207212  0.225962 0.0562871 0.0516519  0.987039  0.151944
  -0.488942   0.0883096 -0.00643481 -0.972225  0.183219  0.145636
 0.189897 -0.203935  0.128943 -0.0814824  -0.787122   0.611391
 0.203084 0.0672836 -0.069096   0.52487  -0.82235 -0.219665
 -0.276819   0.226922 -0.0670165 -0.0307797   0.977259  -0.209804
-0.260684  0.212349 -0.117255 -0.0435807   0.859175  -0.509823
-0.240179  0.160912 -0.161722 0.00335655   0.240323  -0.970687
-0.348053   0.21009  0.102855 -0.216529  0.852185  0.476337
  0.179005 -0.0228158 -0.0168849   0.952957    0.30277 -0.0142356
0.0273125  0.191816  0.135024 -0.013107  0.730813  0.682452
-0.385252 -0.214075 0.0404342 -0.343259 -0.927228  0.149739
0.403683 0.135651 0.151176 0.329398  0.35546 0.874726
  0.476394 -0.0967191   -0.07877  0.884571 -0.311595  -0.34705
 -0.0334613   0.0680052 -0.00289696   0.444318  -0.895691 -0.0178603
-0.454816 0.0939037 -0.126741 -0.731262  0.294797 -0.615103
0.0744734  0.219511 0.0387765 -0.003875  0.995572 0.0939215
-0.223776  0.229836 0.0356914 0.0384816  0.995631 0.0850815
 0.306423 -0.210519  0.118242 0.0863524 -0.847798  0.523241
 0.409118 0.0309905  0.160434 0.0495776 0.0106918  0.998713
