-0.111334 -0.377298 -0.176375 -0.129467 -0.433071 -0.892013
 -0.207103 0.00328361   0.176739 0.251651 0.020949 0.967591
-0.410958  0.086538  0.158865 -0.589418  0.141099   0.79541
0.0993457 -0.249234  0.197009 -0.0189061  0.0142563    0.99972
 -0.196563 -0.0581393   0.175617    0.228527 -0.00839753    0.973501
 -0.370932  -0.299065 -0.0916404  -0.69741 -0.548364 -0.461429
-0.0473076  -0.163337  -0.151533  0.110322  0.442548 -0.889933
 -0.128098 -0.0690337   0.126623 0.505987 0.262761 0.821544
   0.366266 -0.00242038     0.18822    0.38107 0.00265638   0.924542
0.0437065  0.361409 -0.188807 0.0701043  0.353596 -0.932768
-0.339916  0.290987  0.134744 -0.540939  0.492381  0.681869
0.0638688 -0.207372  0.181474 -0.0490771   0.204177   0.977703
 -0.405217 -0.0210769    0.16862 -0.533278 0.0232539   0.84562
0.405112  0.19396 0.132211 0.669216 0.336637 0.662439
-0.359881  0.132171  0.180737 -0.412671  0.160445  0.896638
 -0.246197   0.425717 -0.0511817  -0.4939 0.833137 -0.24889
-0.172831 -0.426829 -0.117374 -0.317008 -0.723475 -0.613262
 0.195898 -0.209045 -0.199441 0.00694191  -0.051148  -0.998667
0.254593 0.360098 0.140339 0.389068 0.581549 0.714441
 0.478138 0.0699248 0.0788458 0.902467 0.160056 0.399918
 -0.113719 -0.0594882   0.102089 0.635666 0.320732 0.702182
 0.332633  0.358242 0.0623748 0.659113 0.691773  0.29499
 -0.043853  -0.113655 -0.0907928  0.250412  0.707756 -0.660587
  -0.48519 0.00662413 -0.0728388 -0.916453 0.0529933 -0.396617
0.395504 -0.28905 0.059016  0.765987 -0.594505  0.244597
  0.496178 -0.0130185 -0.0326872   0.990736 -0.0327759  -0.131791
 -0.29612 -0.328615 -0.139493 -0.502784 -0.579383 -0.641501
-0.00391626    0.498557   0.0155221 -0.0364985   0.996969  0.0687079
0.292368 0.254185 0.179245 0.341954 0.278819   0.8974
 0.185357 0.0411803  0.166633  -0.350628 -0.0654524   0.934225
 -0.129865 -0.0938981  -0.142764  0.404671  0.282983 -0.869576
  0.0936885   0.0347544 -0.00242907   -0.967782   -0.251675 -0.00762944
-0.0553702   0.313914   0.198781 -0.0230619   0.160257   0.986806
 -0.489681 -0.0551226 -0.0479576   -0.96817 -0.0780379  -0.237817
 0.081553  0.443327 -0.129675  0.178107  0.722963 -0.667534
-0.177104 0.0150209  0.158328   0.38457 0.0438766  0.922053
 -0.418752  -0.243467 -0.0733893  -0.79954  -0.47176 -0.371723
-0.23213 0.377996 0.138328 -0.357124  0.615427  0.702646
 0.045341  0.297714 -0.199441 0.0214441  0.152198 -0.988117
 0.156095 -0.176033  0.188802 -0.0874226 0.00184375    0.99617
0.0770773  0.223508 -0.189267 -0.0544494  -0.101281  -0.993367
 -0.440695    0.23245 0.00716878 -0.869104  0.494465 0.0127754
 0.273612 -0.210303  -0.19454  0.209591 -0.199271 -0.957268
-0.359889  0.180516 -0.170882 -0.439006  0.252078 -0.862398
 -0.457981  -0.171826 -0.0607677 -0.884207 -0.340757 -0.319473
-0.402324 -0.288273 0.0371248 -0.786996 -0.588787    0.1843
0.111428 0.242624 0.196724 0.0177637 0.0230536  0.999576
-0.412103  0.176426 -0.133141 -0.694941  0.307839 -0.649841
 0.0862746 -0.0670496  0.0605847 -0.681895    0.5267  0.507549
-0.178567  0.222211 -0.199441 -0.0304573  0.0615282  -0.997641
 0.390776  0.198017 -0.143101  0.609192  0.351516 -0.710859
0.0150015  -0.12757 -0.102082 -0.0613878   0.720449  -0.690785
-0.327833 0.0126809 -0.197362  -0.173194 0.00607983  -0.984869
-0.321315 -0.337521   0.10953 -0.563949 -0.606372  0.560602
-0.0214277  -0.168914   0.151861 0.0115958  0.443706  0.896097
0.0834792 -0.416266 -0.155546  0.148669 -0.591408 -0.792549
-0.278566 -0.132087  -0.19944  -0.145128 -0.0499167  -0.988153
 0.340386  0.308839 -0.118938  0.596454   0.56335 -0.571734
 0.419844  0.188369 -0.118776  0.739817  0.353616 -0.572386
 0.338307 -0.202344 -0.175659  0.386787 -0.274227 -0.880452
-0.197419 -0.210488 -0.199441 -0.0492076 -0.0675751    -0.9965
-0.359289 -0.243723 -0.147001 -0.560079  -0.37717   -0.7376
 0.350694  0.129401 -0.185361  0.381462  0.147625 -0.912521
 0.304425    0.3804 0.0663658 0.593164 0.736304 0.325595
  0.28279 -0.316084 -0.156468  0.411979 -0.458594 -0.787378
-0.108512  0.238497  0.195973 -0.00608687 -0.00453384    0.999971
-0.122178 -0.423035  0.141741 -0.213361 -0.600562  0.770585
  0.379753 -0.0785168   -0.17862   0.454325 -0.0788862  -0.887336
 0.365899  0.210604 -0.157421  0.523663   0.32982 -0.785491
  0.389209 -0.0142154   0.177912    0.46163 -0.0136145   0.886968
-0.445448  -0.10643 -0.120422 -0.756508 -0.207644 -0.620145
 0.112625 -0.321743   0.19541 0.0897358 -0.245451  0.965247
0.299707 -0.31508 0.146037  0.477805 -0.490754  0.728603
-0.264322  0.231028  0.192933 -0.194109  0.188995  0.962602
-0.0205497   0.236846  -0.189686 -0.0469897   -0.10165   -0.99371
 -0.164707 -0.0184616    0.14776    0.4636 0.0234553  0.885734
-0.246531 -0.129225  0.198531 -0.00540473  0.00265564    0.999982
 -0.29419 -0.171309 -0.195488 -0.250175 -0.132718 -0.959061
-0.423864  0.189148  0.113699 -0.772593  0.298649  0.560276
 0.360101 -0.110738  0.184255  0.390635 -0.120215  0.912662
 -0.126096  -0.469946 -0.0687947 -0.270953 -0.897765 -0.347279
 0.159918 0.0390938 -0.146801 -0.428192 -0.106902 -0.897343
 0.333377 -0.169132 -0.185433  0.330357 -0.200235 -0.922372
  -0.445369 -0.00628441   -0.136769  -0.72412 0.0128231 -0.689555
-0.208607 -0.444596 0.0575285 -0.441631 -0.843042   0.30699
  0.162932 -0.0966404   0.166251 -0.294378  0.171091   0.94025
-0.331191  0.368219 0.0383323 -0.642799  0.743795  0.183244
  0.40038 -0.235352   0.11243  0.704908 -0.385187  0.595597
0.191107 0.125718 0.186786 -0.177319  -0.06539  0.981979
 -0.39717 0.0271836  0.173631 -0.492734  0.049356  0.868779
-0.358056  0.156069 -0.177531 -0.403669  0.193565 -0.894195
  -0.459914 -0.00729409   -0.118698 -0.812903 0.0874875  -0.57579
-0.430116  0.249028 0.0250977 -0.854804  0.508546  0.103399
  0.19453  0.340357 -0.176599  0.200093  0.436668 -0.877088
-0.185894  0.373348  0.161046 -0.257887  0.528315  0.808936
-0.420573 0.0346474  0.157489 -0.608807 0.0632618  0.790792
  0.429815 -0.0391523    0.14902   0.647736 -0.0475684   0.760378
 0.194621 -0.440853  0.081412  0.386088 -0.824232  0.414219
-0.498196 0.0122051 0.0124227  -0.992739 -0.0138734   0.119484
 -0.18745 -0.277728 -0.196339 -0.141393 -0.182555 -0.972976
  0.388664  -0.288021 -0.0745771  0.737403 -0.571139 -0.360605
-0.427792  0.193194 -0.105246 -0.771433   0.37136 -0.516704
 0.392032 -0.255872 -0.107258   0.68974 -0.486527 -0.536236
-0.354452 0.0145496  0.191596 -0.318783 0.0244999  0.947511
 -0.201814 -0.0229121  -0.174868  0.246967 0.0366732  -0.96833
-0.173503 -0.235493 -0.199441 -0.0389475 -0.0778282  -0.996206
-0.0649778   0.242565  -0.193745 -0.00129554  -0.0283503   -0.999597
 0.395132    0.3028 0.0126506  0.786123  0.616888 0.0382121
-0.255114  0.390489  0.110191 -0.443719  0.702877  0.555947
0.0842438  0.112293  0.120171 -0.391164 -0.458793  0.797809
 0.215275 -0.248698 -0.197331  0.146116 -0.161863 -0.975936
-0.0495805 -0.0887641  0.0257213 0.454162 0.857862 0.240438
   -0.191347     0.460892 -0.000331117 -0.388311  0.921469 0.0104356
 0.396551  0.276969 0.0753677 0.767164 0.526259 0.366758
-0.00191976   -0.337715   -0.195988 0.0159002 -0.225665 -0.974075
-0.0772736  -0.397855  -0.168962 -0.0981236  -0.500396  -0.860218
0.0132926  0.310094  0.199441 -0.00491743    0.143071      0.9897
 0.433611 -0.110912  0.133765  0.619678 -0.189455  0.761647
-0.445945  0.164598 0.0930653 -0.790985  0.323374  0.519396
   0.32024 -0.0488695  -0.198056   0.185939 -0.0238266  -0.982272
 0.193901 -0.111731 -0.184908 -0.189235 0.0763417  -0.97896
-0.0668066   0.233663  -0.191175  0.0198791 -0.0466065  -0.998716
  0.15998 0.0920895   0.16299 -0.286634 -0.148033  0.946535
 0.382965 -0.293877 0.0772668  0.709945 -0.601618  0.366106
-0.008755  -0.11366 0.0727121 0.0616844  0.821312  0.567135
 0.238696 -0.366239 -0.144628  0.374723 -0.569029 -0.731976
 0.286553 -0.138939  0.198845   0.191007 -0.0990964   0.976574
0.000813522   -0.104731  -0.0410056 -0.00636379    0.950871   -0.309521
  0.484656 -0.0584891  0.0647488   0.952799 -0.0965164   0.287853
-0.301789  0.245778   0.17808 -0.353074  0.310482  0.882576
-0.454877 -0.180023 0.0608793 -0.879656 -0.351052  0.320887
  0.454209   0.208409 0.00262985  0.950298  0.309799 0.0309642
0.186061  0.26643 0.197832 0.0990726  0.176128  0.979369
0.0446279  0.410662   0.16376 0.0550362  0.558314  0.827802
 0.124198 -0.443463 -0.118112  0.239534 -0.758587 -0.605944
0.308577 0.205909 0.186698 0.211507  0.33097 0.919632
-0.0277036   0.238459  -0.190341 -0.00288283  -0.0965646   -0.995323
0.148811  0.30453 0.195745  0.10217 0.229039 0.968041
0.296827 0.219115  0.18716  0.411079 0.0937383  0.906767
0.191527 0.326772 -0.18305  0.185173  0.396594 -0.899124
 -0.237916   0.421269 -0.0745426 -0.484333   0.80037 -0.353311
  -0.406638 -0.00411016    0.168479 -0.547752 0.0130917  0.836538
0.184608 0.343232 0.177676 0.229185 0.401765   0.8866
0.0744601   0.44941 -0.124097  0.194182  0.746618 -0.636282
-0.111269  0.473378 0.0682771 -0.23411 0.894197 0.381582
-0.130383  0.188275  0.186949   0.106899 -0.0202323   0.994064
  0.379442   0.317257 -0.0412886  0.748737  0.627264 -0.214319
-0.232272  0.400457 -0.114266 -0.425059  0.709202 -0.562456
 0.191235   0.43384 0.0965961 0.346958 0.784127 0.514552
-0.0013714  -0.164217  -0.146172 0.00931726   0.560368  -0.828192
 -0.406876  -0.286809 -0.0150802  -0.806061  -0.588645 -0.0613404
0.00929207   0.487837  0.0656098 0.00628341   0.936524   0.350546
-0.293643 -0.255709  0.178289  -0.33427 -0.289806  0.896814
  0.177131  -0.462491 -0.0353713  0.348648 -0.915552 -0.200524
-0.117065  0.346141 -0.188306 -0.141084  0.335874 -0.931281
 0.366903 0.0634756 -0.186208  0.410361 0.0659093 -0.909538
0.348486 -0.18213 0.176023   0.41903 -0.222082  0.880394
0.000466674   -0.165945   -0.147716 -0.0210019   0.476291  -0.879037
   0.40541 -0.0841607   0.162915  0.545114 -0.121064  0.829575
0.418057  0.17997  0.12457 0.709021 0.317479  0.62968
0.123509 0.401425 0.159332 0.176986 0.564274 0.806394
-0.409274  0.116266  0.155419 -0.591979  0.172324  0.787315
 0.167512 -0.183736 -0.192983 -0.0709251  0.0281593  -0.997084
-0.0401352   0.100842 -0.0585179  0.319265 -0.812456 -0.487836
  0.107324 -0.0741001   -0.10557  -0.55711  0.391615 -0.732302
 0.293762 0.0116812 -0.199441  0.0880421 0.00535117  -0.996102
 0.298423 -0.335603  -0.13245  0.498786  -0.55144 -0.668675
-0.112713 -0.481471 0.0389044 -0.229084 -0.954915  0.188833
0.395934  0.23128 0.119854 0.689219 0.410791 0.596849
  0.126518 -0.0662583  -0.123208 -0.501458  0.289053 -0.815468
-0.231864  0.241671  0.196313 -0.141901  0.156887  0.977369
-0.198866  0.248001 -0.198902 -0.0804525   0.169391   -0.98226
-0.234459 -0.167988  0.199441 0.00263754 -0.0041688   0.999988
 -0.357452    -0.3463 -0.0146887  -0.721405  -0.690143 -0.0572498
 0.407897 -0.129308  0.152876  0.606201 -0.177038  0.775357
-0.113599  0.303807  0.197899 -0.0502572   0.176373    0.98304
0.0115255   -0.1961 -0.171108 -0.0239805   0.299413  -0.953822
 0.346548  0.342155 0.0662992 0.686704 0.655371 0.314526
 0.289904 -0.181619  0.195309  0.247205 -0.152455  0.956894
-0.0844322 -0.0575008 -0.0301468  0.785023  0.575048 -0.230346
-0.0922502  -0.165186  -0.166165  0.169701  0.315134 -0.933752
-0.0399134  -0.426122   0.152396 -0.0665659  -0.615778   0.785103
  0.434597 -0.0913763   0.137322  0.644379 -0.195424  0.739314
-0.126663 -0.473419 0.0598177 -0.251642 -0.919972  0.300546
 0.451491 -0.197679 0.0491004 0.884098 -0.39861 0.243888
 -0.414185 0.00955498  -0.163068  -0.55944 0.0194646 -0.828642
-0.343238 -0.125802 -0.188203 -0.334308 -0.100537 -0.937086
  0.053286  -0.492977 -0.0340941  0.132019 -0.973197 -0.188306
0.00620366    0.18832  -0.165544 -0.000249116    -0.314797    -0.949159
0.0545606   0.20343 -0.178462 -0.0731364  -0.208521   -0.97528
 0.121512 -0.446794 -0.114738  0.245929 -0.769966 -0.588788
0.0923794  -0.41836 -0.151882  0.157417 -0.609265 -0.777185
  0.364529 -0.0845576   0.185183   0.402866 -0.0890233   0.910919
-0.214754 -0.437848 0.0657284 -0.441523  -0.82671  0.348724
  0.428667 -0.0360805   0.150289   0.643213 -0.0568205   0.763576
0.0484591 -0.108599 0.0846955 -0.319043   0.71783  0.618815
 0.404055 -0.232575   0.10914 0.723585 -0.38313 0.574139
-0.00239548   -0.411856    0.165005 -0.003823 -0.533659  0.845691
   0.27215  -0.398406 -0.0789523   0.51744 -0.762858  -0.38769
 0.129084 0.0598509 -0.122179 -0.552109 -0.249533 -0.795556
 0.0932757 -0.0923959   0.107247 -0.489213  0.474528  0.731774
   0.40561  -0.270798 -0.0662873  0.779507 -0.548385 -0.302724
 0.145173  0.344815 -0.185359 0.0999456  0.395299 -0.913099
 0.324988  0.348601 0.0914145  0.61432 0.655674 0.438979
 0.129315  0.329332 -0.191852  0.122368   0.37882 -0.917345
 0.098847 -0.213408 -0.188749 -0.0223933   0.108432  -0.993852
 0.383187   -0.2902 0.0824424  0.692105 -0.601952  0.398302
0.0414541 -0.413675   0.16186 0.0686266 -0.557632  0.827247
0.0275771 -0.370692    0.1863 -0.0303337  -0.338965    0.94031
 0.280741  0.321197 -0.154489  0.386993  0.524806 -0.758166
  0.243606  -0.433006 -0.0259263  0.512397 -0.845197 -0.151961
 -0.488429 -0.0779094   0.041537 -0.958071 -0.155864  0.240428
 -0.34764 -0.240848  0.157037 -0.482015 -0.359444  0.799038
0.105094 0.421472  0.14654 0.161872 0.643866 0.747819
 -0.468718  -0.120701 -0.0747894 -0.884991 -0.263501 -0.383873
  0.384583   0.282871 -0.0895169  0.722458  0.551734 -0.416706
 -0.090852 -0.0445539 -0.0180096  0.878234  0.459452 -0.132696
  -0.345831 -0.00302851   -0.194509 -0.271619 -0.042866  -0.96145
-0.227133  0.189013 -0.199441 -0.0724851  0.0986929  -0.992474
-0.227166  0.347314   0.16282 -0.302934   0.49096  0.816816
-0.0940623 -0.0520897 -0.0541739  0.785406  0.465017 -0.408531
 -0.465913 -0.0166465    0.10945   -0.828269 -0.00314581    0.560322
-0.0613592   0.297258   0.199441 0.00927129   0.103795   0.994555
0.0343097 -0.134973  0.118664 -0.156548  0.602263  0.782798
 -0.125454 -0.0176703  0.0987484  0.71521 0.149911 0.682642
  0.461643   0.173096 -0.0450513  0.914131  0.348099 -0.207826
-0.429272  -0.22412 0.0734887 -0.820373 -0.441767  0.363083
-0.317528 -0.299312  0.144686 -0.487131  -0.49933  0.716501
-0.288136 0.0941828  0.199441 -0.102545 0.0408796  0.993888
0.0838013 -0.242629 -0.195253 -0.00808491   0.0165526    -0.99983
-0.000979848     0.446357     0.136205 -0.00620474    0.727751    0.685813
  0.263753  -0.422945 -0.0148884   0.550758  -0.829633 -0.0915169
-0.196712  0.140866 -0.190981   0.108977 -0.0835303  -0.990528
-0.342346   0.33504 0.0867405 -0.612317  0.637979  0.466959
0.0553523   0.14391  0.137133 -0.202861  -0.46778  0.860249
0.277222 -0.33582 0.145804 0.439572 -0.52093 0.731716
0.0752325  0.100043 0.0966264 -0.456304 -0.560326  0.691246
   0.104631    0.487163 -0.00609408     0.2143   0.976408 -0.0265099
-0.00521456   -0.448847    0.132762 -0.0165894  -0.718928   0.694887
0.167714 0.289167 0.196414 0.114449   0.2028 0.972509
  0.132827 -0.0126264  -0.110893 -0.637968 0.0681872 -0.767038
 -0.427364  -0.207336 -0.0946187 -0.784239 -0.393596 -0.479636
-0.312395 -0.202502  0.186384  -0.29364 -0.216066  0.931177
-0.265657 -0.168673   0.19944   -0.11966 -0.0838967   0.989264
-0.215108  0.254308  0.196668 -0.127669   0.16017  0.978798
-0.240095  0.391188  0.119779 -0.401597  0.681043  0.612291
-0.186133  0.336743 -0.180073 -0.226564  0.388772 -0.893043
-0.0932953 -0.0467956  0.0400729  0.83567 0.437139 0.332514
 0.253794 -0.415342 0.0683928  0.513691 -0.787889  0.339636
-0.427405  0.162344  0.121304 -0.741564  0.282955  0.608292
-0.0223114   0.146344  -0.129426 0.0807333 -0.570767 -0.817134
  0.192572   0.459691 0.00965985  0.399119  0.914937 0.0599463
  -0.468272    0.170912 -0.00336151  -0.937991   0.345705 -0.0256978
 -0.490667 -0.0876052  0.0086973 -0.974363 -0.221301 0.0405189
 0.194821 0.0367106  0.172304  -0.275418 -0.0290939   0.960884
  0.488605  -0.095568 -0.0130069   0.978959  -0.199938 -0.0407949
 -0.256178 -0.0310177   0.195423  -0.0158615 -0.00326043    0.999869
  0.34019 -0.238026   0.16227  0.476282 -0.328452  0.815644
  0.485773  0.0340506 -0.0663569  0.945084  0.105872 -0.309203
   0.497729 -0.00915486   0.0215713   0.990978 -0.0336664   0.129727
  0.33183  -0.36978 0.0314994  0.679316 -0.718362   0.14995
0.389539 0.222115 0.132431 0.653898  0.37691 0.656016
 0.014906 -0.270873  0.197464 -0.00238748  -0.0089286    0.999957
-0.247883 -0.132946  0.198979 -0.0114961  -0.019941   0.999735
-0.0804547   0.322378   0.196725 -0.0625157   0.197366   0.978334
 0.110015 -0.306828  -0.19766   0.07098 -0.193586 -0.978512
 -0.139393 -0.0715254  -0.139404  0.430415  0.250095 -0.867292
0.0682649 -0.478102 0.0796667  0.148121 -0.903816  0.401467
-0.256362 -0.308642 -0.172021 -0.326248 -0.399709 -0.856618
-0.0430959  -0.484737  0.0673466 -0.0901572  -0.933269    0.34768
-0.416342 -0.135233   0.14359 -0.656312 -0.219574  0.721832
0.310735 0.301683 0.147595 0.483419 0.459036  0.74538
  -0.25896   -0.40579 -0.0834811 -0.443609 -0.796025 -0.411772
 0.421197 -0.164468 -0.127683  0.720161 -0.267523 -0.640155
 0.0999864 -0.0153462 -0.0162994 -0.974573  0.177675 -0.136523
  -0.288079    0.406929 -0.00433279  -0.578148   0.815727 -0.0182771
-0.237991  0.432595  0.041936 -0.473389  0.856808  0.204411
0.0667157 -0.433329  0.143351 0.0700683 -0.666707  0.742019
 -0.39431  0.112469 -0.166216 -0.512026 0.0858317 -0.854671
  0.303035  -0.378961 -0.0714358  0.577446 -0.740996 -0.342755
0.0237557 -0.230217  0.187713 -0.00761927    0.117762    0.993013
  0.206039   0.446236 -0.0566129  0.421954  0.850956 -0.312776
 0.140732 -0.126251 -0.165888 -0.239564  0.215873 -0.946577
   0.10116 -0.0869397  -0.110363 -0.504982  0.424884  -0.75131
  0.19771  0.209191 -0.199441 0.0569533 0.0373077  -0.99768
  0.477331 -0.0310247 -0.0878924   0.890744 -0.0775222  -0.447845
 0.219368 -0.286585 -0.189648  0.210257 -0.278065 -0.937268
0.145258 0.385515 0.164326 0.199097 0.520173  0.83053
  -0.235395   -0.439243 -0.00534032  -0.47396 -0.880488 0.0101229
-0.0392981  -0.199699   0.175135 0.0320196  0.279177  0.959706
-0.224189  -0.44378 0.0239055 -0.482538 -0.870929  0.092956
-0.225046 0.0188592 -0.185917  0.146454 -0.011483 -0.989151
-0.308548  0.383971 0.0482899 -0.595667  0.768823  0.232577
0.199313 0.234239 0.199441 0.0599036  0.106267  0.992532
-0.207279 0.0630473  0.181293   0.203882 -0.0490071   0.977768
 0.214986 -0.294594  0.188478 0.223005 -0.28262 0.932949
-0.0968928  0.0574173 -0.0690407  0.729696 -0.407278 -0.549244
 0.430812 -0.103351 -0.138394  0.701405 -0.149801 -0.696843
-0.235646  0.289608  -0.18572 -0.248967  0.299795 -0.920944
-0.297241 -0.300822   0.15686 -0.405662 -0.461383  0.789028
  0.01197 -0.350076  0.193003 0.0192201 -0.353634  0.935186
0.400853  0.24777 0.101374 0.723204  0.44916 0.524626
 0.203482 -0.222382  0.199441   0.102026 -0.0845705    0.99118
0.0727814    0.4412 -0.134632  0.160253  0.692598 -0.703297
 0.059847 -0.222316 -0.187289 -0.0590111  0.0195684  -0.998066
 -0.331757 -0.0969126   -0.19463  -0.271193 -0.0579926  -0.960776
-0.336122  0.173706  0.183211 -0.349021  0.198679  0.915812
-0.173665 -0.414095 -0.132008 -0.300474 -0.678356 -0.670484
 -0.405841 -0.0148692  -0.168497  -0.514663 -0.0104668  -0.857329
0.0266311 -0.420204 -0.158132 0.0481318 -0.569063 -0.820884
 0.367778 -0.192459  0.162238  0.519032 -0.270246  0.810909
 0.455371 0.0531134 -0.120286  0.792114  0.100423 -0.602056
 0.431427  0.100057 -0.138487  0.692014  0.156842 -0.704639
-0.0399904  0.0990713  0.0510099  0.332073 -0.841253  0.426638
  0.25657 -0.170314  0.199441 0.118939 -0.10339 0.987504
  -0.42138 -0.0730557  -0.152959 -0.591889 -0.099611 -0.799841
 0.205603 -0.235733 -0.199441  0.103562 -0.128211 -0.986325
 0.492623 0.0740649 0.0216319 0.980002  0.16246 0.114905
-0.316065  0.148541  -0.19345 -0.274187  0.145311 -0.950635
  0.465932   0.104062 -0.0894967  0.876423   0.19159 -0.441787
 0.375192 -0.230591 -0.141303  0.561898 -0.425139 -0.709596
-0.399641 -0.291204 0.0388411 -0.784474 -0.589542  0.192459
 -0.486447  0.0310688 -0.0651827 -0.928902 0.0824961 -0.361021
 0.11373  -0.4303 0.136808  0.205608 -0.690323  0.693671
 0.213874 0.0872484  0.187574  -0.133405 -0.0379853   0.990333
  0.122212 -0.0223666 -0.0948898 -0.712166  0.142199 -0.687459
 -0.289643 -0.0362442   0.199441 -0.0651796 -0.0399809   0.997072
  0.274842 -0.0310831  -0.198237  0.00655586 -0.00230535   -0.999976
 -0.409493  -0.242835 -0.0923131 -0.754087   -0.4579 -0.470829
 0.403068 0.0422514 -0.169053  0.534126 0.0657396 -0.842845
 0.414822 -0.252424 0.0712348  0.812592 -0.482325  0.327196
-0.249576  0.224364  -0.19627 -0.173408  0.180505 -0.968167
-0.389927 -0.200338   0.14276 -0.606425 -0.314698  0.730215
-0.266824 -0.367114 -0.125577 -0.455998 -0.620515 -0.637987
 0.227033 0.0468391  -0.18786  -0.142031 -0.0582597  -0.988146
 0.110815 -0.013309 0.0662925 -0.847204  0.101794  0.521425
 0.376844  0.261918 -0.119481  0.661449  0.478842 -0.577231
0.0622514  0.172481   0.16218 -0.155204 -0.336033  0.928975
-0.024948 -0.137319  0.119044 0.0869973  0.598422  0.796444
 0.167339 -0.225848 -0.198951    0.044615 -0.00926007   -0.998961
 0.320402 -0.301327  0.141471  0.511605 -0.487097  0.707812
0.147277 0.130795 0.171248 -0.234354  -0.20275  0.950774
 0.098311 -0.303249 -0.198785 0.0629619 -0.172951 -0.982916
0.00510991   0.263076  -0.196183 -0.0622418 -0.0175333  -0.997907
0.0305055  0.318594  0.198562 0.0189212  0.179336  0.983606
0.284621 -0.22497 0.189096  0.275599 -0.207449  0.938621
 0.448229  0.194783 0.0636147 0.862678 0.382104 0.331336
-0.0745855   0.332499   0.195419 -0.0714967    0.23238   0.969994
  0.395114  -0.283796 -0.0678542  0.755319 -0.569078 -0.325027
-0.460872 -0.146854 0.0761407 -0.868278 -0.316163  0.382275
 -0.171228 -0.0199468    0.15391  0.414314 0.0142984  0.910022
 0.092409  0.405128 -0.161906   0.13801  0.554175 -0.820879
-0.419618 0.0199319 -0.158858 -0.587351  0.023021 -0.809005
 -0.41889  0.206596 -0.108149 -0.758807  0.389607 -0.521937
-0.0809879  -0.446496   0.125934 -0.149433  -0.73636  0.659881
 0.316814 -0.198702  -0.18561  0.308399 -0.240701 -0.920301
-0.0772267   0.259942   0.197357  0.00849903 -0.00502481    0.999951
 -0.213473   0.432594 -0.0790751 -0.406281  0.830831 -0.380337
0.141747 0.219766 0.195897 -0.0219558 0.00571143   0.999743
0.210102 0.133661 0.193011 -0.0523247  0.0254557   0.998306
 0.134777 0.0323681  0.117904 -0.597362  -0.12539  0.792109
 0.154241  0.104302 -0.163972 -0.298433 -0.217681 -0.929275
 -0.483905  -0.119085 0.00758106   -0.965991   -0.258564 -0.00225217
0.0998139  0.109997 -0.130201 -0.409037 -0.382739 -0.828372
-0.145101 0.0118575 -0.126704   0.573571 -0.0273806  -0.818698
-0.0803262   0.220978   0.188885 0.0480674 -0.132045  0.990078
 0.159196  0.329816 -0.188139  0.134242  0.381557 -0.914546
-0.0550335  -0.291539   0.199441 -0.0298722  -0.122205   0.992055
 -0.449519 -0.0248167   0.130162   -0.731468 -0.00361298    0.681867
 0.228417   0.43631 0.0477724 0.454911  0.85673 0.243043
-0.174204   0.24261 -0.199441 -0.0825566   0.114124   -0.99003
 -0.103978  -0.028753 -0.0550206  0.872885  0.263456 -0.410686
  0.337595  -0.358189 -0.0495931  0.675926 -0.698522 -0.234929
-0.0543418   0.102641 -0.0781643  0.371595 -0.691718 -0.619227
0.0331513  0.127302  0.107508 -0.182017 -0.648261  0.739342
-0.281654 -0.363229  0.118313 -0.487181 -0.631486  0.603224
  0.198368 -0.0491876  -0.175522 -0.228057  0.082461  -0.97015
 0.440312 -0.198424 0.0793123  0.82756 -0.38048  0.41277
 0.104201 0.0392257 0.0659285 -0.803284 -0.287726  0.521486
0.0752981 -0.122317   0.12402 -0.318353   0.51868  0.793488
0.265482 0.273806 0.181725 0.276176  0.30687 0.910801
0.452806 0.119062 0.106232 0.809405 0.223128  0.54321
0.0312611  0.410239   -0.1647 0.0664696  0.569309 -0.819432
-0.0796626  -0.464019  -0.101748 -0.155484 -0.839529 -0.520591
 0.360249  0.152826 -0.177086  0.440496  0.172352 -0.881055
 0.408847 -0.204229 -0.121903  0.691198 -0.385288 -0.611391
 0.0960058 -0.0290535 0.00482014 -0.946765  0.318272 0.0483679
 0.424286 -0.152667 -0.129228  0.720035 -0.249676 -0.647466
0.372523 0.122734 0.176611 0.442042 0.159901 0.882627
0.186464 0.238446 0.199441 0.0442241  0.100812  0.993922
 0.425468 0.0363828  0.153238  0.624931 0.0677054  0.777739
-0.125514  0.236743  0.196964  0.0140614 0.00103397   0.999901
-0.215677 -0.154651  0.196571  0.0272321 5.6871e-05   0.999629
 0.479299 -0.090821 0.0646011  0.938346 -0.170205  0.300893
 -0.104124 0.00335933 -0.0391423    0.95402 -0.0138738   -0.29942
-0.425596 0.0796326 -0.147826 -0.65481 0.126396 -0.74515
   0.497759 -0.00378158   0.0262889  0.988361 -0.024318   0.15017
-0.272887 -0.174233  0.198101   -0.14711 -0.0975574   0.984297
  0.27116  0.195606 -0.196395 0.190817 0.144109 -0.97099
 -0.213176 -0.0395954   0.181524  0.224211 0.0179051  0.974376
-0.153512 -0.283216 -0.198232 -0.0673141  -0.163119  -0.984307
-0.174531   -0.4215 -0.122905 -0.308194 -0.708552   -0.6348
 -0.41928 -0.113045  -0.14696 -0.631934 -0.180016 -0.753826
-0.293346 -0.202025  0.191189 -0.252288 -0.189162  0.948983
 0.225991 -0.371819 -0.146108  0.349106 -0.574182 -0.740567
 -0.467854   0.147599 -0.0586311 -0.904135  0.308105 -0.295991
-0.266303 -0.226812  -0.19329 -0.256749 -0.203829  -0.94474
-0.161191 -0.148898 -0.182753  0.163338  0.044976 -0.985544
-0.0556302  -0.495435 0.00782519 -0.113449 -0.992014 0.0551053
 -0.197466 -0.0162834   0.172271  0.280317 0.0278452  0.959503
  0.326859   0.349374 -0.0881685  0.627782  0.658896 -0.414423
 0.176826 -0.379957 -0.160052  0.263981 -0.534461  -0.80291
0.388969 0.211274 0.138667 0.629553 0.349661  0.69383
  0.17286 -0.374793  0.164449  0.264023 -0.505021  0.821734
-0.019971  0.426197   0.15365 -0.0295933    0.61941    0.78451
   -0.1374   0.478639 -0.0243388 -0.301567  0.947753 -0.104023
   0.40539 -0.0753676  -0.164207   0.565583 -0.0904115  -0.819721
-0.0247234  -0.496792 -0.0192108 -0.0456801  -0.994448 -0.0948015
0.0316192 -0.159928 -0.145332 -0.0768024   0.466223  -0.881327
-0.332365  0.140538 -0.189761 -0.311613  0.154109 -0.937629
-0.217922 -0.334341 -0.173558  -0.29027 -0.425474 -0.857155
 -0.199857    0.42906 -0.0982578 -0.380904  0.780287 -0.496049
-0.222539  0.324434 -0.176051 -0.254636  0.403323 -0.878915
  0.38777  0.120847 -0.168713   0.51821   0.15205 -0.841629
 0.0381408  -0.489415 -0.0544478 0.0918168 -0.959769 -0.265356
-0.0671033   0.489204   0.046293 -0.139392  0.964267  0.225297
0.0465991   0.19432  0.173347 -0.104864  -0.27141  0.956734
 0.281083 -0.283068 -0.173237  0.347016 -0.362526 -0.864959
 0.037733 -0.378753  0.182138  0.014146 -0.386518  0.922173
0.0934745 -0.215753  0.188792 -0.0639659   0.130772   0.989347
 0.261442 -0.287729 -0.178351  0.302424  -0.33604 -0.891974
-0.491366 0.0522936 0.0414629 -0.972288  0.101258  0.210721
0.292523 0.126569 0.198811  0.182049 0.0842849   0.97967
 0.291218  0.137902 -0.198301  0.188073 0.0984426 -0.977209
 0.339814 -0.361223 -0.033278  0.683952 -0.711894 -0.159424
-0.222624 -0.416582 0.0983292 -0.428572 -0.750894  0.502478
-0.194774  0.257738  0.198095 -0.105658  0.131054  0.985729
 0.0793669 -0.0852615 -0.0788805  -0.54987  0.596714 -0.584444
-0.0976453  0.0318712  0.0326785 0.917831 -0.26661 0.294118
-0.419534 -0.266911  -0.03141 -0.829593 -0.539048 -0.145608
-0.0658159   0.111148   0.103436  0.350245 -0.576875  0.737932
 -0.175627 -0.0871933   0.170772 0.255542 0.105083  0.96107
-0.00882803    0.226996    -0.18639 -0.0305258  -0.124406  -0.991762
  0.395046   0.302445 -0.0164165   0.783367   0.614553 -0.0930633
-0.0615016   -0.21538  -0.184812 0.0251398  0.150818 -0.988242
 -0.187589     0.4619 0.00526497 -0.380765  0.923987  0.035577
 -0.132209 -0.0910233  -0.142907 0.409655 0.267368 -0.87218
-0.00111655    0.264418    0.196342 0.00700138 -0.0261042   0.999635
 -0.136489   0.476616 -0.0375452 -0.292959  0.939803 -0.175916
-0.0317665  -0.315719   0.198982 -0.0183707  -0.202088   0.979195
 0.0728482  -0.075908 -0.0439221 -0.650246  0.666328  -0.36495
-0.249195  0.324954 -0.166031 -0.326622  0.436885 -0.838123
-0.388729  0.103713 -0.171216 -0.494427  0.121125 -0.860739
-0.135572  0.349052 -0.185063 -0.164903   0.37171 -0.913586
  0.357062 -0.0614798   0.189313   0.342817 -0.0639557   0.937223
-0.497102 0.0128699 0.0263884 -0.981457 0.0383099  0.187817
 -0.488994 -0.0175914  0.0611488   -0.941966 -0.00817165    0.335609
 0.375001 -0.221607  0.145464  0.605115 -0.324604  0.726958
0.245756 0.302559 0.177789 0.264058 0.362554 0.893772
-0.323131 -0.375099   -0.0411 -0.629214 -0.754149 -0.188011
 0.0724402   0.484314 -0.0620668  0.160308  0.946138 -0.281292
0.0612161  0.314476   0.19851 0.0373061  0.189158  0.981238
 -0.475349 -0.0521453  0.0887073   -0.88879 -0.0534094   0.455192
 0.426238 -0.120294 -0.139202  0.691696 -0.181445 -0.699024
  0.420858 -0.0303728   0.157504    0.59985 -0.0446305   0.798866
 0.356741 -0.279175  0.126711 0.600391 -0.47744 0.641547
 0.363745 0.0179634 -0.188654  0.346551 0.0115512  -0.93796
 -0.483025  0.0996921 -0.0443957 -0.951909  0.205786 -0.226984
-0.250321  0.189658  0.199441 -0.115713  0.122853  0.985656
-0.0827353  -0.376657   0.179648 -0.101877 -0.423769  0.900023
-0.325556 -0.294271  0.142722 -0.503721 -0.486631  0.713762
-0.279694 -0.258736 -0.182018 -0.330435 -0.291133 -0.897805
 -0.426939 -0.0403172   0.151612 -0.655341 -0.023838  0.754957
-0.0771579   0.423923   0.149835 -0.133871  0.622628  0.770982
-0.0639021  -0.461598   -0.11107 -0.109863 -0.806459 -0.580994
 0.258753 -0.209258   0.19666  0.201081 -0.145319  0.968736
 0.307395 -0.347647  0.113768  0.554341 -0.609885  0.566345
0.0861797 -0.128155  0.137188 -0.288834  0.429057  0.855853
0.0157454  0.250357  0.193748 -0.00920915  -0.0725146    0.997325
 0.348334 -0.172041  0.178422  0.399145 -0.205285  0.893612
-0.326734 -0.298634 -0.139077 -0.540002 -0.477153 -0.693342
-0.109492  0.339077 -0.191171 -0.123786  0.300527 -0.945706
-0.0424004   0.246986  -0.193597 -0.00680462  -0.0395473   -0.999195
 0.157364 -0.273675 -0.199218    0.1014 -0.153122 -0.982991
-0.229675 0.0742031  0.190743   0.105351 -0.0193217   0.994247
  0.292819   0.373682 -0.0943169  0.554213  0.692019 -0.462556
-0.118942  0.423808  0.141678 -0.197668  0.670321   0.71526
-0.0670518   0.277931   0.199441 -0.0134332  0.0656509   0.997752
 -0.284612  -0.383964 -0.0885638 -0.580342 -0.671902 -0.460163
-0.345541 0.0312202 -0.193977 -0.275785 0.0278987 -0.960814
-0.278452 -0.321692  0.155639 -0.392292 -0.479407  0.785032
 0.434489  0.175274 -0.105224  0.787795  0.343798 -0.511059
0.0188446  -0.15551  0.139253 -0.0795217    0.50276   0.860761
-0.0999378  -0.103196  -0.124266  0.394644  0.410468 -0.822054
-0.0776246  -0.473656 -0.0858535 -0.155615 -0.887694  -0.43334
 0.35021 0.115816 0.187262 0.351976 0.136545 0.925996
-0.0294335  -0.177235   0.159501 0.0353406  0.412646  0.910206
 0.271314 0.0245275  0.197634 0.0345971 0.0100559  0.999351
-0.271032 -0.109665 -0.199441  -0.083853 -0.0363963  -0.995813
-0.204418  0.111995  0.188257   0.137191 -0.0457229   0.989489
-0.137151 0.0645871  0.133934   0.47612 -0.192229  0.858113
0.0432867  0.369253  0.186397 0.0398869  0.369202  0.928493
 0.214337 -0.216231 -0.199441 0.0885326 -0.109664 -0.990018
0.323958 0.306389 0.135719 0.543312 0.495068 0.678027
 -0.199511   0.437208 -0.0857716 -0.392813  0.817837 -0.420525
  0.450112 0.00450842    0.13124  0.743814 0.0199216  0.668089
 -0.266549 -0.0444835   0.197262 -0.0482953 -0.0116431   0.998765
 0.496239 0.0321082  0.019545  0.991534 0.0700592  0.109327
 0.259001  0.121611 -0.199441 0.0728705 0.0368092 -0.996662
-0.021013 -0.330405  0.196884 -0.0076245   -0.23318   0.972404
 0.38741 0.199009 0.145407 0.605477 0.317459 0.729806
-0.0551647   0.112007  0.0958804  0.318712 -0.641647  0.697648
0.0050932 -0.444494  -0.13766 0.0231158 -0.700975 -0.712811
  0.157705 -0.0614942  -0.151154 -0.426293  0.161069  -0.89013
 -0.362883  -0.339357 -0.0289988 -0.729021 -0.672251 -0.128865
-0.108502  0.388884 -0.170417 -0.160603  0.492585 -0.855317
-0.163531 -0.442939 0.0986037 -0.327471 -0.772596  0.543928
-0.343875 -0.193195 -0.175417 -0.405278 -0.241236 -0.881791
-0.297925  0.247359 -0.179116 -0.406789  0.302489 -0.861988
-0.142208  0.134938   -0.1708  0.215225 -0.184014 -0.959071
 0.279777  0.370992 -0.111629 0.512569 0.661384 -0.54758
0.0563356 -0.357265  -0.18959 0.0644192 -0.326551 -0.942982
  0.445715   0.211016 -0.0481444   0.86473  0.441721 -0.239007
 0.382837   0.27679 0.0982727 0.702262 0.491449 0.515078
-0.187944 0.0386187  0.167988   0.302693 -0.0358362   0.952414
-0.104748 -0.270486  0.199441 -0.0635182 -0.0856458   0.994299
  0.457332 -0.0915939   0.108691    0.8393 -0.244852  0.485411
  -0.21453 -0.0238197  -0.181022  0.193735 0.0194645 -0.980861
 0.112104 -0.476324 0.0604732  0.230801 -0.924293  0.303995
 -0.320646  -0.381161 -0.0192013  -0.628617  -0.772918 -0.0862424
-0.0069348  -0.111976  0.0680887 0.0477033  0.835977  0.546687
0.0174246 -0.193417  0.169566 -0.039598  0.313721  0.948689
 0.161793 -0.392979  0.155319  0.262576 -0.568076  0.779964
 0.297337 -0.384518 0.0687935  0.592832 -0.730448   0.33911
-0.0625258   0.413644   0.160559 -0.096004  0.564339  0.819942
-0.433542 -0.174309 -0.107352 -0.776562 -0.319017 -0.543304
-0.407044 0.0101856  0.167906 -0.541946 0.0308934  0.839845
0.230519 0.367568 0.147561 0.326561 0.562257 0.759753
 0.034081 -0.266781  0.197054 -0.00069135  0.00604753    0.999981
-0.169238 -0.466247 0.0320281 -0.368133 -0.916105  0.158839
  0.0920187   0.0404719 -0.00823174  -0.955721  -0.293405 -0.0226136
-0.247823 -0.281953  0.184973 -0.268094 -0.302801  0.914569
 0.237658 -0.406286   0.10151  0.461163 -0.724338  0.512507
 0.194018  0.335178 -0.178912  0.201404  0.412917 -0.888221
   0.49092  0.0128854 -0.0557671  0.972592 0.0469726 -0.227723
-0.464745  0.173208  0.032116 -0.941332  0.308277  0.137329
 0.038747 -0.371217 -0.185732 0.0531198 -0.370109 -0.927468
 0.450811 0.0928214 -0.117471  0.790558  0.161066 -0.590826
-0.203409  0.097491 -0.185642 0.119468 -0.04647 -0.99175
  0.297804 -0.0551795   0.199441   0.155431 -0.0356197   0.987204
  -0.276223   -0.415825 -0.00410085  -0.551445  -0.834006 -0.0185036
0.0951179 0.0787748 0.0934668 -0.601285 -0.457666  0.654979
 0.332234 -0.238828 -0.166295  0.433109 -0.347854 -0.831513
-0.384416  0.289966 0.0802853 -0.709786  0.569473  0.414612
-0.436626 -0.189663 0.0930154 -0.829894 -0.332131   0.44829
-0.459559 -0.185944 0.0339098 -0.900947 -0.408988  0.144993
  0.425471 -0.0638736   0.151056   0.617775 -0.0992172    0.78007
-0.0316745    0.32305  -0.197878 -0.057422  0.182912 -0.981451
   0.498102  -0.0161488 -0.00991213   0.998786 -0.0409402 -0.0274116
-0.0194824  -0.496845  0.0235108 -0.0610101  -0.991642   0.113683
 0.105406 0.0782529  0.107225 -0.555169 -0.373434  0.743192
  0.214568   0.427791 -0.0879498   0.40427  0.825472 -0.393907
-0.204412 0.0301762 -0.176423   0.228069 -0.0264584  -0.973285
 -0.0320409   -0.497534 -0.00231977  -0.0643967   -0.997923 -0.00155646
0.185515 0.230352 0.199441 0.0374421 0.0672613  0.997033
 0.378319 -0.261094  0.118617   0.64419 -0.455697  0.614295
 0.354346 -0.220352  0.161158  0.502953 -0.307558  0.807741
-0.391647 -0.074724 -0.173398  -0.465216 -0.0852098  -0.881086
 -0.235481 -0.0453514  -0.190314 0.0941342 0.0250748 -0.995244
  0.467166  -0.171639 -0.0138269   0.935967  -0.347917 -0.0540362
-0.133452 -0.124135  0.161347 0.256288  0.24459 0.935143
-0.0310185   0.471882 -0.0973302 -0.0772223   0.870012  -0.486946
0.0264511  0.129692  0.109089 -0.139076 -0.639706  0.755932
  0.2043 0.374501 0.153588 0.296336 0.566882 0.768655
 -0.106245 -0.0341621  0.0662991 0.831836 0.266352 0.486934
   0.25403 -0.0211332  -0.194992 0.00214396 0.00543423  -0.999983
  0.13968 -0.331657 -0.190059  0.148488 -0.306416 -0.940245
   0.306648 -0.00992265   -0.199441    0.13369 -0.0270771  -0.990653
-0.138874   0.25726 -0.199441 -0.0576985  0.0985327   -0.99346
 0.269213 -0.315856  -0.16281  0.373354 -0.436012 -0.818841
-0.135435  0.307474 -0.196226 -0.108682  0.218439  -0.96978
 0.428818  0.158922 -0.121143  0.732283  0.303391 -0.609685
0.0435589 -0.399904 -0.171146 0.0631326 -0.484029 -0.872772
0.0787154  0.100213 -0.100489 -0.481865 -0.523155 -0.702933
 -0.211764  -0.443183 -0.0563315 -0.451567 -0.852558 -0.263121
 -0.300988   0.372477 -0.0874929 -0.545985  0.718483 -0.430909
0.0813634 -0.291398 -0.199441 0.0389699 -0.119184 -0.992107
-0.29995 0.286107 0.162663 -0.421934  0.384229  0.821182
0.0580191 -0.199345  -0.17689 -0.0423641    0.22092  -0.974371
-0.0028499  -0.471522   0.101445 -0.00769668   -0.853597    0.520878
   0.497055  -0.0333682 -0.00745422   0.997159  -0.073522 -0.0163664
-0.350666  0.139113  0.183735 -0.378575  0.160791  0.911497
 0.176527 -0.334509 -0.183243  0.224076 -0.329076 -0.917333
-0.117823  0.240994 -0.196971 0.00328941  0.0350011  -0.999382
-0.055561 -0.357927  0.189441 -0.0520821  -0.332283   0.941741
  0.36652 0.0849131  0.184207 0.399234 0.103284 0.911013
-0.132417  0.173911  0.182421  0.114556 -0.156986  0.980934
 0.175205 -0.317019   0.18924  0.175266 -0.291314  0.940435
-0.0388746   0.108474 -0.0758407  0.270457  -0.75176 -0.601423
0.0847233 -0.286002 -0.199441 -0.0209508 -0.0604559  -0.997951
-0.436076  0.212184 0.0728468 -0.825113  0.412681  0.385854
 0.0741199  0.0672652 -0.0030663  -0.703532  -0.710584 -0.0105708
0.294476 0.236918  0.18347 0.336832 0.221881 0.915048
 0.151198 -0.397052 -0.155213  0.246721  -0.57323 -0.781368
-0.222487 -0.374826 -0.145215 -0.351932   -0.5895 -0.727072
-0.441912 0.0684013 -0.134927 -0.727655  0.123876 -0.674665
 0.0758637 -0.0680222  0.0267241 -0.766126   0.59563  0.241404
-0.0437603     0.4457   0.133252 -0.0571547   0.728246   0.682929
-0.299536 -0.165009 -0.195235 -0.252917 -0.129501 -0.958782
   -0.10856    0.486719 0.000725705 -0.223389   0.97459 0.0164616
-0.398039  0.290337 0.0467583 -0.772287  0.591061  0.232851
-0.134896 -0.330841  0.190812  -0.13687 -0.299775  0.944141
-0.468408  0.120889 0.0754605 -0.886572  0.241133  0.394772
 0.384472   0.11124 -0.172966  0.499277  0.123454 -0.857602
  0.416339 -0.0288585  -0.160658   0.590401 -0.0305662  -0.806531
-0.387189 0.0817282  0.174783 -0.486241  0.112688  0.866528
  0.481487   -0.13202 -0.0024009   0.968586  -0.248107 -0.0168662
 0.0883463   0.047043 0.00454653  -0.934559  -0.352454 -0.0487472
-0.411484 -0.250625 0.0809201 -0.768238 -0.501977  0.397278
 0.162947 -0.302548  0.194984  0.140772 -0.234112  0.961964
-0.165029 -0.368292  0.170633 -0.257077  -0.46445  0.847466
-0.0388941  -0.468649   0.101956 -0.0750692  -0.846684   0.526774
   0.07641 -0.0666642  0.0190447 -0.785005  0.602591  0.143706
0.118071 0.284708 0.199441 0.0504956  0.125502  0.990807
-0.0140529  -0.208245  -0.177659 0.00972967   0.217473  -0.976018
 0.222411  0.264765 -0.194486  0.207571  0.225591 -0.951852
 0.444047 -0.147116  0.106761  0.790245 -0.288275  0.540749
-0.0196771   0.155133  -0.138958 0.0480827 -0.520852 -0.852292
-0.230053  0.136235  0.196853 0.000949336   0.0156434    0.999877
 0.379043  0.308813 0.0624234 0.721997 0.622562 0.301888
0.00708703  -0.126907  0.0999527 -0.0465568   0.722685   0.689608
-0.0585028   0.365456  -0.186972 -0.111976  0.377206 -0.919335
-0.00434397   -0.178813   -0.158972 -0.0103673   0.384536  -0.923052
  -0.269821 -0.00386346   -0.197186 -0.0128992 0.00806825  -0.999884
 0.360192 -0.130973  0.180799  0.415163 -0.146885  0.897811
 -0.17333 -0.277072 -0.197612 -0.118303 -0.128496 -0.984628
-0.160261 -0.436231 -0.111502  -0.30865 -0.747818 -0.587796
 0.198515 0.0803822  0.180254  -0.239259 -0.0195745   0.970758
 -0.408375  -0.267935 -0.0650167 -0.794892 -0.508404 -0.331166
 0.135123  0.287038 -0.199057 0.0642403  0.199923 -0.977703
0.00610697   0.384961  -0.180237 0.0113967  0.476008 -0.879367
 0.196584 -0.447269  0.064303  0.395629 -0.860654  0.320549
-0.129384 -0.467808  0.072346 -0.252829 -0.893876   0.37022
 -0.479578 -0.0598427  0.0774393  -0.909546 -0.0894188   0.405869
 0.435576  0.241162 -0.011416  0.843372  0.527842 -0.100533
0.0846571 -0.105633  -0.11378 -0.381236  0.492521 -0.782357
0.0333589 -0.475071 -0.091518 0.0740181 -0.875153 -0.478152
0.0314566 -0.303643  0.199441 0.00936519   -0.15654   0.987627
-0.17006 0.139446 0.182966   0.183259 -0.0903608   0.978903
 0.344773  0.279916 -0.137634   0.56757   0.47595 -0.671815
  -0.34651 -0.0780718   0.191411  -0.294713 -0.0584325   0.953797
 0.396643 -0.119175   0.16343  0.547004 -0.160727  0.821556
 -0.41138  -0.05295 -0.162864  -0.542908 -0.0614185  -0.837543
 0.206007 -0.204952  0.199441 0.0779622 -0.059076  0.995204
  0.13289  0.258036 -0.199441 0.0299522  0.117838 -0.992581
 -0.106839 -0.0438822  0.0763985 0.769224 0.315738 0.555521
 -0.16188 -0.393978  0.154419 -0.240482 -0.565852  0.788657
-0.277405  0.413804 0.0162657 -0.556123  0.826902 0.0834285
-0.0259753  -0.153172  -0.138076 0.0692607  0.503604 -0.861154
 0.186148 -0.320019  0.186803  0.197755 -0.304755  0.931675
 0.0344761 -0.0971334 -0.0345703 -0.321437  0.907322 -0.271006
  0.31791 -0.302537 -0.142314   0.49854 -0.485551 -0.718122
-0.0253711   0.214602   0.181111 0.0131176 -0.229297  0.973268
-0.332145  0.158375 -0.187628 -0.331864  0.175517 -0.926855
0.407653 0.125899 0.154197 0.595134 0.209194 0.775921
0.435325  0.13535 0.123833 0.740284 0.226792 0.632886
  0.380389   0.297696 -0.0766886  0.728679  0.597417 -0.334842
   0.348544 -0.00425562   -0.193645   0.30172 0.0105667 -0.953338
-0.0812871 -0.0672157 -0.0446603  0.704325  0.621272 -0.343435
-0.106237 -0.080115  0.110319 0.540962 0.390026 0.745144
0.232556  0.17463 0.199441 0.0575595 0.0534263  0.996911
   0.13955 -0.0813241  -0.143901 -0.410872  0.255734 -0.875091
 0.183067 -0.419636 -0.121349  0.332943 -0.712753 -0.617359
 0.432907 -0.141773   0.12386  0.720113 -0.257018  0.644499
  0.493329 -0.0727818  0.0160562  0.984123 -0.152904 0.0901209
  0.35022 0.0443638 -0.192244  0.309401 0.0188983 -0.950744
-0.00966949   -0.307964    0.199441 -0.00634623   -0.174761     0.98459
-0.154946  0.275661  -0.19913 -0.104729  0.156337 -0.982136
-0.278021  0.243797  0.187145 -0.254335  0.253706  0.933245
-0.362683  0.274927 -0.123931 -0.615283  0.482406 -0.623468
  0.464794   0.177617 -0.0156094   0.934154   0.348945 -0.0747864
  0.23612 -0.127349  0.197014  0.0190846 -0.0282388   0.999419
-0.275066  -0.13367   0.19944 -0.0887291 -0.0538109   0.994601
  0.290866 -0.0733824  -0.199441  0.0842496 -0.0167999  -0.996303
  0.456491  -0.126885 -0.0970926  0.849905 -0.240162 -0.469025
 -0.17024  0.268764 -0.198937 -0.0983243    0.15904  -0.982364
 0.208464  0.398923 -0.130301  0.352098  0.666984 -0.656627
-0.312218  -0.17875 -0.190017 -0.308209 -0.174321 -0.935211
-0.262111  0.153195  0.199441 -0.0966913  0.0791042   0.992166
-0.123618 0.0490413 -0.110151  0.635848 -0.204248 -0.744298
-0.138725  0.456023 0.0923686 -0.240731  0.843941  0.479388
  0.364639  -0.338568 -0.0198488   0.725333  -0.681497 -0.0972369
 0.197827 -0.456429 0.0259658  0.40329 -0.90748 0.117631
0.0402008 -0.205253  0.177848 -0.0452286   0.236239   0.970642
0.0994663 -0.385704  0.173663 0.0884936 -0.465648  0.880534
 0.379385 -0.317062 0.0420036  0.747747 -0.634572  0.195428
 0.263253 -0.328472 -0.158348  0.378592 -0.464987 -0.800284
   0.23276 -0.0843884   0.192737 -0.0780912  0.0227121   0.996687
0.0828687 -0.139346 -0.144423 -0.219937  0.405985  -0.88702
0.241854 0.344026 0.158602 0.301903 0.504536 0.808887
-0.359593 0.0786584 -0.187419 -0.361774 0.0594397 -0.930369
 0.132375 -0.442657 -0.116505  0.269866 -0.750618 -0.603112
  0.359563   0.343755 -0.0188025  0.712355  0.691643 -0.119083
  0.403071   0.280911 -0.0538745  0.771078  0.585459 -0.250354
-0.155094   0.19229  0.192523  0.0600928 -0.0620213   0.996264
0.330326 0.229003 0.171363 0.408602 0.277788 0.869413
 -0.403228  -0.291814 -0.0140196  -0.800683    -0.5964 -0.0566926
-0.427343 -0.255946 -0.013301 -0.847039 -0.527818 -0.062713
-0.0588517   0.452272   0.123657 -0.0848477   0.773668   0.627884
  0.301652 -0.0124349   0.199441   0.154322 -0.0138126   0.987924
  0.151171 -0.0210926  -0.135143 -0.517381 0.0721506 -0.852708
  0.214075  -0.450342 -0.0117047  0.526081 -0.845641 -0.090167
 -0.175138   0.464964 -0.0250681 -0.362074  0.926184 -0.105287
  0.222893   0.436914 -0.0570694  0.433577  0.848752 -0.302705
-0.0834051  -0.489928  0.0299711 -0.191119 -0.968777   0.15794
 -0.339647   0.338221 -0.0858694 -0.664301   0.63282 -0.397798
-0.13274 0.209395 0.192682 -0.0175365 -0.0480467   0.998691
0.0837405 0.0915774 0.0945342 -0.525372 -0.528489  0.666846
  -0.47817  0.0694598 -0.0790187 -0.902046   0.13279 -0.410707
-0.187597 0.0863862  0.176372  0.260023 -0.101586  0.960244
-0.246087  0.163962 -0.199441 -0.0954842  0.0843061  -0.991854
0.186926 0.103435 0.180033  -0.240006 -0.0958024   0.966033
-0.328795 0.0328921 -0.196999 -0.203499 0.0147896 -0.978964
-0.491681 0.0422014 0.0432446   -0.9686 0.0846894  0.233755
 0.241804 -0.195632  0.199441  0.130276 -0.102078  0.986209
  -0.2374 -0.436718 0.0221273 -0.477705 -0.874071 0.0883061
-0.151566   -0.2256 -0.197492  0.0103242 -0.0247555   -0.99964
-0.100053  0.394911 -0.167619 -0.151956  0.513611  -0.84446
 0.191082 -0.148095 -0.190926 -0.0969235  0.0714766  -0.992722
-0.0625892  -0.172717   0.162412 0.0966243  0.355587  0.929635
-0.102411  0.177144  0.175651  0.131373 -0.221044  0.966375
  -0.441806    0.230555 -0.00627224 -0.870297  0.490008 -0.049762
  0.495759 -0.0391344  0.0192456   0.988616 -0.0805756   0.127064
-0.282539  0.246587 -0.185195 -0.332127  0.270807 -0.903524
-0.145925  0.360161   0.17829 -0.140189  0.407719  0.902282
   0.22566 -0.0268034  -0.186374  -0.182631 0.00918972  -0.983139
-0.0447703   0.174107   -0.15964 0.0869559 -0.363668 -0.927461
 0.443943 -0.183096  0.084305 0.824242 -0.36395 0.433781
0.0263983 -0.390745  0.176753 0.00502011  -0.416891   0.908943
  0.477114  -0.137267 -0.0346822  0.951404 -0.269633 -0.148755
-0.321263  0.339771  0.106831 -0.575841  0.606259  0.548504
-0.150629 -0.264219  0.199441 -0.0767671  -0.115454   0.990342
0.0527722  0.118715 -0.104439 -0.308389 -0.599777 -0.738352
0.128819 0.198778  0.18926 -0.0674969   -0.08926   0.993719
-0.092131 -0.110858 -0.124669  0.371567  0.462248 -0.805149
0.253941 0.224965 -0.19574  0.192814  0.184855 -0.963666
-0.20567 0.205318 0.199441 0.00283268  0.0451953   0.998974
0.0991313 -0.444772 -0.123202  0.203211 -0.747609 -0.632287
-0.167398 -0.281642 -0.197435 -0.0732127  -0.147399  -0.986364
 0.215284 -0.328826 -0.176453  0.247365 -0.390697  -0.88666
0.264782 0.388209  -0.1033 0.501317  0.70023 -0.50829
 0.462931 -0.181036  0.022968  0.920544 -0.377098  0.101958
-0.420887  -0.26641   0.02202 -0.828683 -0.549366  0.107151
0.309528 0.316916 0.138369 0.512056 0.500299 0.698212
-0.254172  -0.10168 -0.197831 -0.0355081 -0.0041558  -0.999361
 0.159153   0.42558 -0.124855  0.271092   0.72354 -0.634822
 0.31078 0.116431 0.196762 0.217345  0.10211 0.970739
-0.280016 0.0730515  0.199441 -0.0516093 -0.0218778   0.998428
 0.138399 -0.466801 0.0694974 0.277535 -0.89425 0.351128
-0.114889 -0.401553  0.161027 -0.196654 -0.567113  0.799819
 0.0202771   0.475812 -0.0918535 -0.0198454   0.896101  -0.443407
 -0.434646   0.192297 -0.0946395 -0.792806  0.390621  -0.46784
-0.100064  0.392375   0.16931 -0.133736  0.497286  0.857217
  0.105539  0.0110243 -0.0477463  -0.921534 -0.0854724  -0.378774
-0.0535928   0.369317   0.186102 -0.0774701   0.361043   0.929326
 0.147119 -0.322344  0.191953  0.144132 -0.275596  0.950407
0.193618 0.171864 0.195528  -0.015522 0.00685506   0.999856
