-0.1365835218 0.0105465602 0.4999921316 -0.0000459486 -0.0000011662 0.9999999982 
0.1335313193 0.2313102370 -0.2631411530 -0.0001250320 0.0000211457 -0.9999999920 
-0.0679524059 0.0251287980 -0.1562246629 0.0007343857 -0.1870255534 0.9778348207 
0.2466892481 -0.1457683193 0.0607442073 -0.0094925450 0.9047901762 -0.4257518393 
0.1080286006 -0.1952384182 0.1150242630 -0.6895641205 -0.0033464668 -0.7242125954 
-0.2285586242 -0.2631432681 -0.0716120137 -0.0001141498 -0.9999999930 -0.0000303484 
0.1796660883 0.0786778761 0.1373540858 0.0005030922 -0.4764623546 -0.8749235088 
0.2609480403 -0.2631345618 -0.0660610198 0.3001782439 -0.6999707661 -0.0000116449 
0.0605171293 0.1739665192 0.4263715836 0.3085180831 0.9512162058 0.0020790085 
-0.1346892204 0.1256336633 0.3249789232 -0.7403622949 0.6722057394 0.0000215248 
-0.1941303966 0.0484156266 0.2631539606 -0.0001785035 -0.0000378146 0.9999999834 
-0.0410925823 -0.1795994460 0.2733606916 -0.1824363898 -0.8808234933 0.0789792650 
-0.0769213003 0.2070513787 -0.2631457049 -0.0001164563 0.0001669930 -0.9999999767 
0.2631477914 0.1644566912 0.0257822114 0.7929649049 -0.1984133273 -0.0219680900 
-0.1710177430 0.0089728307 0.4999921316 -0.1000060780 0.0021040572 0.9021685201 
-0.1175245550 0.2631478084 0.1780870866 0.0000191573 0.9999999993 0.0000176956 
-0.2631433388 -0.1342736144 -0.1639696254 -0.9999999992 -0.0000179193 -0.0000242037 
-0.2631449258 -0.0623886465 0.2051712566 -0.9999999974 -0.0000038882 0.0000649283 
-0.2631435726 0.0248828659 0.1670355873 -0.7990949669 -0.0460069767 -0.1947939458 
-0.2631424675 -0.2331475917 -0.1264912376 -0.9999999996 -0.0000177111 -0.0000194570 
-0.0183560764 -0.1416740319 -0.1568749987 0.0910631064 0.0001528970 0.9935756694 
0.2217449409 0.0242704206 0.1563025501 -0.0057959806 -0.1921459944 -0.9793389409 
0.2333757318 -0.0642013810 -0.1441408540 0.0008126690 0.4065765956 0.9135997365 
0.2631486790 0.2610222526 -0.0570364381 0.8000614826 0.1998732935 -0.0000181011 
0.2631439772 0.1656569468 0.2043450146 0.9999999969 0.0000531735 0.0000041157 
0.0583468452 -0.0586599808 -0.1469101708 -0.2669123195 0.0779715311 0.9377589407 
-0.1517957676 0.1043000545 -0.3134347350 -0.8254609019 0.5644577753 0.0000449147 
-0.0704553885 0.1779342907 0.1413185142 0.4778784300 0.0030375949 -0.8783658038 
0.0587003136 -0.1746565125 0.2981327103 0.2899344010 -0.9570458181 -0.0006691606 
0.2067443495 -0.2631400273 0.2067791256 -0.0000249572 -0.9999999985 0.0000409311 
0.2631474077 0.0862380043 -0.1546234293 0.9999999725 0.0000750135 -0.0002099879 
0.2631437711 -0.1643067964 -0.1912337692 1.0000000000 0.0000000000 0.0000000000 
0.1592532194 0.0923893097 -0.3015856111 0.8648629931 0.5019931222 -0.0004502629 
-0.1848622301 0.2631447864 0.1861405638 0.0000126494 0.9999999966 0.0000809767 
-0.2437129996 0.1318699731 0.0869300510 -0.0019444068 -0.8371980843 -0.5413522816 
-0.2348927018 0.2631453190 0.0981414367 -0.0000754942 0.9999999970 0.0000008592 
0.0084053970 -0.2631399930 -0.2227302848 -0.0000901360 -0.9999999939 0.0000451452 
-0.1470825733 0.2026899643 -0.2631398919 -0.0000498734 0.0001164940 -0.9999999832 
-0.1561300194 -0.1408511660 -0.0720207513 -0.0000360403 0.9023716908 0.4245988755 
-0.1948433550 0.0752190009 -0.2631494431 -0.0001272516 0.0000193305 -0.9999999911 
0.0714595605 0.1854190776 -0.2631479091 0.0001525541 0.0000411057 -0.9999999828 
-0.2631488127 -0.1713651245 0.0053155185 -0.9999999789 -0.0000314199 0.0001518853 
-0.1121806515 0.1461583619 0.2875294068 -0.6283283626 0.7770037654 0.0057782179 
-0.0789950928 0.2204636812 -0.1368611425 0.4755258512 0.0021933479 0.8777005643 
-0.2631444230 -0.1282424528 0.1813303598 -0.9999999988 -0.0000408183 0.0000267361 
0.2266837688 0.2631450248 -0.1176549491 0.0001625023 0.9999999830 -0.0000192410 
0.2631446524 -0.0316848955 0.2510343061 0.9999999861 0.0001451261 0.0000207586 
-0.1809704627 -0.0343372682 -0.3860046407 -0.9830479611 -0.1780713424 0.0001448403 
0.1628737059 -0.0866382961 0.4666023626 0.8672297177 -0.4941042112 -0.0016305339 
-0.1584282518 -0.2631449591 -0.0187077975 0.6887018433 -0.2878831924 0.1037548958 
-0.0234184145 -0.1831968062 0.4278670648 -0.1031762882 -0.9909967431 -0.0007602271 
0.1007692759 0.1472140113 0.1223005961 -0.5889050693 0.0070637404 -0.8035740923 
0.1611244963 -0.0894859046 -0.3875441807 0.8535780214 -0.5209633462 0.0006020474 
0.2631473655 0.0795753969 0.1643377598 0.9999999735 0.0000798798 0.0001808901 
-0.1469003478 -0.2084761637 -0.2631431910 -0.0000394594 -0.0000326649 -0.9999999977 
-0.1530566004 -0.2394908463 0.2631423202 0.0001342139 -0.0001195962 0.9999999838 
0.0754642611 0.2631464595 0.2047713143 -0.0000353961 0.9999999981 0.0000365106 
-0.2246507395 0.2631448738 -0.2418054503 0.0001444518 0.9999999894 -0.0000154418 
0.2631476910 -0.0731042758 -0.2471981217 0.9999999965 0.0000000413 0.0000841738 
-0.1754092151 -0.1857997603 -0.2631455588 0.0000145757 -0.0001774247 -0.9999999832 
-0.2631332415 0.2246223666 -0.2601894227 -0.4000235227 -0.0001132625 -0.6002153209 
0.0549092325 0.0541130267 -0.4999965030 0.0000525358 0.0000309944 -0.9999999969 
0.2182721664 0.2631465085 0.0614761046 0.0001783655 0.9999999795 -0.0000850527 
0.0475974555 -0.0528002136 -0.1510343569 -0.1990304632 0.0688844350 0.9597082981 
-0.2228737257 -0.2631440155 -0.0683536194 -0.0000976425 -0.9999999942 -0.0000294011 
-0.1841451699 -0.0132417445 0.3994696174 -0.9972439257 -0.0326883852 0.0009267762 
0.0199840544 -0.0584264134 -0.5000000000 0.0000000000 0.0000000000 -1.0000000000 
0.1535010651 -0.1018589272 -0.3340413714 0.8430341944 -0.5360743289 0.0024880852 
-0.0531316373 0.0217056583 0.1571738143 0.0026525002 -0.1380664604 -0.9853038859 
0.0996723239 0.2505952915 -0.1229762971 -0.6577152608 -0.0017675480 0.7495315316 
0.1103392024 0.1476114581 -0.3928550930 0.5672448465 0.8235491753 -0.0002000169 
0.0986492147 -0.2631469278 -0.1482649272 0.0000226623 -0.9999999972 -0.0000619316 
0.0730561332 -0.2435334930 0.1405010972 -0.4890926924 0.0007124940 -0.8686774319 
-0.1557121483 0.2517954770 0.2631413342 0.0000559774 0.1999620527 0.8000049923 
0.1448148024 0.1138519675 -0.2937338135 0.7775340928 0.6288279807 -0.0002567170 
-0.2631436403 0.1155812070 0.1586364581 -0.9999999975 -0.0000445416 0.0000087146 
0.0930101648 -0.1836513858 0.1277440493 -0.5894254268 -0.0041934058 -0.8032158708 
0.2631443791 0.1279432401 -0.1388300848 0.9999999863 0.0000777286 -0.0001318966 
-0.2631426821 -0.1444521127 0.2246551493 -0.9999999989 -0.0000297830 0.0000300729 
-0.0408193630 -0.1795805052 -0.3863219879 -0.2382648667 -0.9711995191 -0.0003802571 
-0.2110521703 0.2631468639 0.0972817732 -0.0000090437 0.9999999959 -0.0000361064 
-0.0622703638 0.1271016321 0.4999945477 -0.0000928896 0.0001118208 0.9999999866 
0.2464847221 -0.0132575934 0.2631441831 0.0000672518 -0.0000145123 0.9999999976 
-0.2631420794 0.2434226818 0.1719132056 -0.9999999997 0.0000139722 0.0000159526 
0.1395583054 0.2033648729 -0.0738101222 -0.8929746594 0.0037768283 0.4500818509 
0.1670648232 0.0780939147 -0.3719025202 0.8931273329 0.4427854205 0.0005662136 
-0.1695511591 0.0722931350 0.2941583535 -0.9037575078 0.4280437169 -0.0009713355 
0.1268249500 -0.1335329495 0.4168569564 0.6886724899 -0.7238688154 0.0003829535 
-0.2233111442 -0.0406277063 0.1524103894 -0.0064558936 0.2513624928 -0.9678105374 
-0.1627990582 -0.0863257441 0.4112049912 -0.8776905065 -0.4744174414 -0.0006885605 
-0.1324836941 -0.2631393663 0.2564578198 -0.0000161523 -0.8000111016 0.2000364692 
-0.1970267467 -0.1343472655 0.2631430904 -0.0000227112 -0.0000928607 0.9999999937 
-0.1567459063 -0.1896582542 0.0208891518 0.9819774654 -0.0052326671 -0.1787705815 
-0.0488847586 0.2631499890 -0.1840714873 -0.0000561667 0.9999999955 -0.0000756224 
0.2631425622 -0.2574044636 -0.2000069489 0.8999943164 -0.0999513642 -0.0001132545 
0.1802277938 -0.1141474105 0.1091259500 -0.0110073851 0.7178783720 -0.6960815185 
-0.2298293430 -0.2631409472 -0.2273438588 0.0000977456 -0.9999999946 0.0000341887 
-0.1464826242 -0.1121815018 -0.4009093631 -0.7754942932 -0.6273445700 0.0001019815 
0.2631449890 0.1207275616 -0.2390308787 0.9999999870 -0.0000004838 0.0001589804 
-0.1521951336 0.1038818942 -0.4712752047 -0.8289830662 0.5592013029 0.0022368547 
-0.0600826462 -0.1744899388 0.4673138197 -0.3384407038 -0.9390293521 0.0009449426 
0.0029760652 -0.2631411697 -0.2584179153 -0.0000210824 -0.9000120684 -0.0999681177 
-0.1521324007 -0.0326782287 -0.1543913384 -0.0018628540 0.2253661810 0.9742714164 
-0.0126305795 -0.1837562554 -0.4386032546 -0.0672209688 -0.9977377124 0.0008936978 
0.0514249048 -0.0526276062 0.1497304921 -0.2110956348 0.0740934549 -0.9560158820 
0.2381413162 -0.2631406103 0.1967999604 0.0000900080 -0.9999999901 -0.0000028392 
0.2631455860 0.1324117711 0.2214445753 0.9999999968 -0.0000002359 -0.0000796339 
0.2631454961 0.0886982454 -0.1621258669 0.9999999729 0.0000484096 -0.0002226782 
-0.0145524231 0.0058029835 0.1577234256 0.0044710667 0.0046475502 -0.9999771963 
0.2557290728 0.2631367902 -0.1356122701 0.2002589857 0.7999664596 -0.0000244536 
-0.0682863273 -0.2631401892 0.2622995641 -0.0000304881 -0.7000168200 0.3000441500 
-0.1156341417 -0.2206072141 0.1074372639 0.7364664781 0.0030914350 -0.6764561133 
-0.0823968068 -0.1359771362 0.4999937556 -0.0000936142 -0.0000415688 0.9999999889 
0.0828221349 -0.1722450237 0.2631528803 0.1864104267 -0.3545499272 0.5957034244 
-0.0650562002 0.1604169911 0.4999938967 0.0000306716 -0.0001970487 0.9999999001 
-0.1608499796 -0.2016874666 -0.2631428770 -0.0000118418 -0.0000877540 -0.9999999929 
0.0483884059 0.1776991795 0.2801145439 0.2741894494 0.9616636477 0.0017872180 
-0.1396622678 -0.1378976991 0.0772311262 0.4487868129 0.4213281496 -0.4715281442 
-0.2631427270 -0.1965060233 -0.1444977505 -0.9999999997 -0.0000119693 -0.0000217274 
0.0709962730 -0.1703992068 0.4651333744 0.3756278670 -0.9241219595 0.0011905426 
-0.0759220546 0.2065267212 -0.2631459052 -0.0001066192 0.0001640083 -0.9999999778 
-0.2631408497 0.2141298153 -0.2122499162 -0.9999999928 -0.0000331711 -0.0001156438 
-0.0479077389 0.1781201019 -0.2718529437 -0.1203103377 0.4842068884 -0.5012732797 
-0.0374696773 0.1803939347 0.4055492470 -0.2184163440 0.9741969634 0.0011976164 
-0.0236900806 -0.1612648723 -0.1565163055 0.1158702851 -0.0010398226 0.9891695648 
0.0091110926 0.1427430066 0.4999969567 0.0000493640 0.0000220509 0.9999999978 
-0.1773855295 0.1570933585 0.0146740210 0.0171572338 -0.9890083151 -0.1442755656 
0.2180408123 0.2631460327 -0.0852373806 0.0001008331 0.9999999948 0.0000127710 
0.1885572519 -0.1229756340 -0.0995655978 0.0023688044 0.7774320815 0.6235482924 
-0.1271167859 -0.1339707152 -0.2696488227 -0.4558183404 -0.5305493708 -0.2996556996 
-0.2253992414 0.2631455708 0.2404994751 0.0001382074 0.9999999887 -0.0000158716 
-0.0527263301 0.2205342953 -0.1492025786 0.3066850811 0.0021450074 0.9483885216 
0.2078455112 0.0181370205 -0.2631510934 0.0002559463 0.0000692855 -0.9999999547 
0.0948143931 0.1582645812 -0.4858300772 0.2565292120 0.4281750443 -0.5000823446 
-0.1968682042 -0.0057629487 -0.2631467657 -0.1999391077 -0.0021761066 -0.7998380134 
0.2028793296 -0.0659715797 -0.2631477768 0.0002112955 -0.0000630259 -0.9999999739 
-0.2631430814 0.2301982329 0.0608535780 -1.0000000000 -0.0000032238 -0.0000041212 
-0.0847610690 0.1639987995 0.3185582469 -0.4443847806 0.8930486944 -0.0005792469 
-0.0824988758 0.1060774204 0.4999948512 -0.0001339683 0.0001343377 0.9999999806 
-0.2256326201 -0.2631441029 0.0282397175 -0.0000784379 -0.9999999959 0.0000005435 
-0.1658374031 -0.2631392252 0.2460035157 -0.0000072561 -0.9999999996 0.0000256012 
-0.2631431552 0.2575927995 0.0891863238 -0.9999999999 0.0000113204 0.0000071492 
-0.1534414530 -0.2362042004 0.0375863757 0.9729205026 0.0021637264 -0.2216488874 
-0.0593792701 -0.2631297110 -0.1571925147 0.0285213014 -0.8988097964 0.0969538478 
0.2073407424 0.0829386103 0.1348753126 0.0009869104 -0.4971238858 -0.8626687441 
0.2631427985 0.2194965222 -0.2510987241 0.9999999968 -0.0000006291 0.0000804342 
-0.1525531364 0.1032464630 -0.4548742806 -0.8273024266 0.5617461131 0.0030277264 
-0.1418531227 0.1561205704 -0.2631493081 -0.0001960775 0.0001777752 -0.9999999635 
0.2330866237 -0.2631401701 0.1578683476 0.0002135976 -0.9999999726 0.0000094248 
-0.1588147687 -0.2631412940 0.1988632255 -0.0000511147 -0.9999999954 0.0000797503 
0.1124083767 0.0238732671 -0.4999969270 0.0000099763 0.0000436332 -0.9999999964 
-0.1439141389 -0.0173923854 -0.4999921316 0.0000013999 0.0000564174 -0.9999999977 
0.0936498463 -0.2089889469 0.1274207642 -0.5687732538 -0.0018914131 -0.8189943639 
0.0261315109 -0.1822846481 -0.3057937493 0.1293883902 -0.9915939521 -0.0002803592 
0.1494545821 -0.1458731054 0.2631481226 0.0001005008 -0.0001288417 0.9999999863 
0.1815603032 0.0308501753 -0.2936895541 0.9828440450 0.1842124200 -0.0079292975 
-0.0844960860 -0.1640040862 -0.4727866683 -0.4585737000 -0.8861128423 0.0006184752 
0.1729960718 0.0368122411 0.4999929741 0.0969299892 0.0249770318 0.9011958371 
0.0869196568 -0.0354768989 -0.4999994220 0.0000700239 0.0000000028 -0.9999999973 
0.0761977051 -0.2631422598 -0.2193677999 0.0000267648 -0.9999999977 -0.0000616561 
-0.2302707367 0.2631455510 -0.1668100513 0.0000757716 0.9999999970 -0.0000004860 
0.2631501908 0.0814518318 -0.1436552262 0.8985073883 -0.0543753339 0.0839687781 
-0.0137201730 -0.1837831340 -0.2690287032 -0.0195823749 -0.5037938805 -0.3016592800 
-0.0189513025 -0.1879049772 -0.2631565888 -0.0337782220 -0.3974405734 -0.6008873516 
-0.1341220324 -0.1263964938 -0.2762938040 -0.7122130018 -0.6982784420 -0.0018998269 
-0.1828393166 -0.0228405923 -0.4415354566 -0.9888792095 -0.1390822819 -0.0020976074 
-0.0605854803 -0.1742964540 -0.4015999441 -0.3436445827 -0.9362565808 0.0000910436 
0.1405775627 -0.1189625597 -0.3945869883 0.7691568610 -0.6390600277 0.0000644126 
0.2631446960 0.0773309669 -0.2216767259 0.9999999871 0.0000200710 0.0001549979 
0.0919696290 0.2426642383 0.1286946356 -0.5640099179 -0.0054928450 -0.8220684660 
0.2631417967 -0.0122221598 -0.1603739421 0.5872595572 0.0214396124 0.3991488752 
0.0411959571 -0.1773935948 -0.4999786327 0.0795650414 -0.2889190306 -0.7015068130 
-0.2514224733 0.1403988656 -0.2631416590 0.0000115549 0.0000370456 -0.9999999991 
0.1314393944 0.0060005941 0.4999955258 0.0001001714 0.0000003241 0.9999999950 
-0.1708081022 0.2631466767 0.1126966979 0.0000981923 0.9999999866 -0.0001282392 
-0.1442575494 -0.1337345195 0.0840230488 0.0751128284 0.7633487589 -0.5376206855 
0.0354190648 0.2631472961 0.1837910811 0.0001383700 0.9999999855 0.0000991764 
-0.2631419775 -0.2536710116 -0.1313694935 -0.8000195005 -0.2000150197 -0.0000013358 
-0.2631427071 -0.1813944538 0.1896775137 -0.9999999984 -0.0000514125 0.0000227108 
0.0711949161 0.1702713370 -0.4592723907 0.3906966308 0.9184833336 -0.0032613941 
0.1918597444 -0.2631441307 0.0088452832 -0.0000568271 -0.9999999877 0.0000234032 
0.0482939741 0.1075717585 0.4999943316 0.0000881974 -0.0000015208 0.9999999961 
0.0284672985 -0.1819893929 -0.2722746930 0.1035641674 -0.7933487018 -0.2002270345 
-0.2631455449 0.1038724986 -0.1512515193 -0.9999999988 0.0000096549 0.0000292572 
0.1822082873 -0.0911827261 -0.1287972335 0.0008742248 0.5720205281 0.8180049739 
0.2173749443 -0.1733334048 -0.2631405100 0.0000540896 0.0000333908 -0.9999999980 
0.2631459670 -0.0916990678 0.1503405696 0.9999997919 0.0001346098 -0.0000043403 
-0.1685299343 0.0789654502 0.1373043672 0.0034536831 -0.5452928220 -0.8328703251 
0.1931535346 0.0082206200 0.1577981969 0.0013386691 -0.0470381396 -0.9954729105 
-0.2631400587 0.2430477569 0.2392857846 -0.9999999980 -0.0000042597 -0.0000597527 
0.1782492143 0.0463483425 0.4803792001 0.9682913197 0.2495374041 0.0119584309 
0.0099029494 0.1844437031 -0.2874573741 0.0945754077 0.9928963321 0.0010044305 
-0.0555501063 -0.1762393567 -0.3055511333 -0.3040046516 -0.9488144460 -0.0025300665 
0.0690189915 -0.1709759744 0.4837848320 0.3367326005 -0.9405931370 0.0035359235 
0.1049488463 -0.2631488708 0.1432680672 0.0000493495 -0.9999998922 -0.0000683339 
-0.1639369223 -0.2631450677 -0.1413198827 -0.0000722099 -0.9999999928 -0.0000950183 
-0.2444906864 0.2631466748 -0.2052786217 0.0000901987 0.9999999956 0.0000130761 
-0.1441983818 0.2184024611 -0.0641430252 0.9218675536 -0.0087871475 0.3872196676 
0.0684838160 0.1316598735 -0.1423828623 -0.4049363692 0.0064499555 0.9124734858 
0.2576186763 0.2631369107 0.1103931905 0.5001570995 0.4999594989 0.0000381386 
-0.2167561589 -0.2631434883 0.1453346408 -0.0000725457 -0.9999999958 0.0000365638 
-0.0967537148 -0.1567290816 -0.4551810468 -0.5241448336 -0.8504707698 0.0017150359 
-0.1651915557 0.0815024086 0.2961616214 -0.9038831048 0.4277775838 -0.0008085662 
-0.1755659358 0.0554858814 0.3447408211 -0.9515528467 0.3074789581 -0.0011393549 
-0.1847577294 0.1675818250 -0.2631416741 -0.0000281849 0.0000180656 -0.9999999992 
-0.1558517187 0.0982862205 0.4534077217 -0.8462587775 0.5294515287 -0.0012692280 
0.0761636628 -0.2631408304 -0.2425210735 0.0000225144 -0.9999999978 -0.0000615561 
0.2631451898 -0.1057451060 0.2181624035 0.9999999887 -0.0000697589 -0.0001333986 
0.0120907788 -0.1840575752 -0.4156884505 0.0693673914 -0.9936108505 0.0001649023 
0.1830471443 -0.0241241270 0.3865399787 0.9896568036 -0.1044927082 0.0019094348 
-0.0756785522 0.1678864475 0.3280013697 -0.3936386530 0.9192623076 -0.0001237269 
-0.0863609976 0.0113978526 0.1577575826 -0.0001137850 -0.0480403991 -0.9945507679 
0.2354203111 0.0182595592 0.1575005744 -0.0072761810 -0.1023255936 -0.9898389639 
0.0939045198 -0.1588028886 -0.3624132135 0.5475639735 -0.8357654473 0.0001516790 
0.2515425593 0.1969490994 -0.2631416395 0.1000227895 -0.0000590601 -0.8999919266 
0.1069022276 0.2631442399 0.1175737250 -0.1305920374 0.7976951004 -0.1520285460 
-0.0342361141 -0.1626436766 0.4999921316 -0.0000166258 -0.0002401688 0.9999999365 
-0.1971106304 -0.2631390268 0.2433345261 -0.0000075153 -0.9999999997 0.0000233996 
-0.2071924755 0.2631436107 -0.2096005677 -0.0000127852 0.9999999988 -0.0000474993 
0.1481730145 0.2405247712 0.0545845065 -0.9371244221 -0.0084098067 -0.3488940994 
0.1871231554 0.1567781632 0.0159029451 0.0056274503 -0.9978714120 -0.0605835165 
-0.0758137263 -0.1679015756 0.3938180189 -0.3972111188 -0.9166842891 -0.0009435534 
0.2363648756 0.2631433765 0.0816306788 0.0002622026 0.9999999639 -0.0000223146 
0.1596011896 0.2264683097 0.2631421536 -0.0001196158 0.0001052293 0.9999999871 
0.0267564452 -0.1506909713 -0.4999922460 0.0000758272 -0.0001411134 -0.9999999815 
-0.0807873049 0.2256726427 0.1356946470 0.5044905465 0.0026693416 -0.8602309237 
0.0481564418 -0.1702739162 0.1509383274 -0.3811233758 -0.0035290440 -0.9244566660 
0.2590731616 -0.2631347017 0.1681905220 0.4001438580 -0.5999748851 -0.0000180125 
0.0271442254 0.2631453379 0.2443648843 0.0000174623 0.9999999997 -0.0000033156 
-0.2221416948 0.2631448984 -0.2168074379 0.0001179147 0.9999999924 0.0000072118 
0.0310682964 -0.0456778938 -0.5000000000 -0.0000143812 0.0000143812 -0.9999999990 
-0.1475087052 0.2451494036 -0.2631384041 0.0000431848 0.0000358033 -0.9999999984 
0.2357406275 -0.1044514671 -0.1189044000 0.0014255540 0.6727166389 0.7359378710 
0.1894576034 0.2631461561 0.1898581177 0.0000274008 0.9999999970 0.0000706888 
-0.1841442831 0.0055380405 0.3193288254 -0.9982908404 0.0275362859 -0.0004163407 
-0.1334299480 -0.0330064256 0.4999921316 -0.0000237156 0.0000201518 0.9999999981 
-0.0730140206 0.2325979823 0.1398855188 0.4772858948 0.0129529868 -0.8785825173 
-0.1973617210 -0.2631385944 0.2621135195 0.0000095768 -0.5999925323 0.4000136954 
0.2047507695 -0.0863543333 0.2631472529 0.0001590705 -0.0000573267 0.9999999850 
0.1839891576 -0.0087515008 -0.3024488181 0.9999319712 -0.0093940880 -0.0016444913 
-0.2094374059 -0.2631407130 -0.2526840481 -0.0000130609 -0.9999999988 0.0000303198 
0.0313841015 0.2631463548 -0.2464335857 0.0000036342 0.9999999989 -0.0000454797 
-0.2631279279 -0.2612194685 0.1918074816 -0.6999814341 -0.3005687352 -0.0000191662 
-0.1068063077 -0.1221836478 -0.4999902250 -0.0000836995 -0.0000699846 -0.9999999928 
0.0737636427 -0.2258286857 -0.2631429109 0.0000925635 -0.0001178713 -0.9999999888 
0.1165038641 0.0171929615 0.1578573891 -0.0017982460 -0.0884340365 -0.9894837976 
0.1458238573 0.1127558599 0.2912268887 0.7991524810 0.5970614285 0.0029317858 
-0.2631448604 0.1492331612 0.1315705845 -0.9999999960 0.0000606710 0.0000661213 
0.1601107183 0.2631487187 -0.1543405153 0.0000387762 0.9999999979 -0.0000510494 
-0.1522988324 0.2264995949 -0.0430738248 0.9520863647 0.0052404756 0.2868920610 
0.0735684789 -0.1690372885 -0.4859462996 0.4020618818 -0.9136706162 0.0015748768 
0.1712903885 0.0673858086 0.2649717349 0.4692545744 0.1723629900 0.4877328618 
0.1810846005 0.0334786965 0.3604354674 0.9790425941 0.2036041790 0.0031941238 
-0.1897720019 -0.1496021953 -0.0529888544 0.0035161727 0.9364987547 0.3317438177 
-0.1702571809 0.2548844967 -0.2631396083 0.0000453185 0.2000134343 -0.8000025154 
0.2631437711 0.2248442666 0.0855397992 0.9999999930 -0.0000837348 -0.0000000416 
-0.0341034920 0.1202163038 0.4999974209 -0.0000659357 0.0000761857 0.9999999947 
-0.0194723348 0.2631460509 -0.2503054590 -0.0000175676 0.9999999969 -0.0000760727 
-0.1135486879 -0.2381256592 -0.1098935107 0.7195213867 -0.0086651432 0.6910027212 
-0.0305274704 -0.2090557802 0.1553750321 0.2541027304 -0.0050009121 -0.9667348214 
-0.0074011625 0.1839537970 0.4143897126 -0.0504336182 0.9987252314 0.0007085329 
-0.2631464700 -0.0129331841 -0.1786039922 -0.9999999720 -0.0000096571 -0.0000398657 
0.0524081949 0.1594083388 -0.4999968349 0.0000412242 -0.0000540047 -0.9999999928 
0.1165814737 0.1430181899 -0.4272081141 0.6247538910 0.7776503665 -0.0002998972 
-0.1667921189 0.2564137200 -0.2631393129 0.0000453185 0.2000134343 -0.8000025154 
-0.1823789390 0.0255074477 -0.3276400134 -0.9870412583 0.1604095129 -0.0026103852 
-0.1256486259 0.1350697718 0.3798928372 -0.6781895184 0.7316142690 -0.0000700332 
-0.1661117213 -0.0614962602 0.4999944144 -0.1904158820 -0.0613301911 0.7995818983 
-0.1774830307 0.2446760215 -0.2631403418 0.0000609782 0.0000150166 -0.9999999968 
-0.2631455016 -0.0701218633 0.1530622098 -0.8972373224 0.0390820880 -0.0920039208 
0.1876899951 0.1916366745 0.2631428465 0.0000636468 0.0000549944 0.9999999964 
0.2309071967 0.1577845618 -0.0038628637 -0.0132853218 -0.9999063818 -0.0032753449 
-0.1420041766 0.1316771346 0.0869671811 0.1667038293 -0.6606538409 -0.5528665786 
0.1892566703 -0.0978187190 0.2631487198 0.0001853315 -0.0000966073 0.9999999750 
0.0325286122 0.1799839485 -0.1545682673 -0.1615824291 -0.0034770885 0.9868530937 
-0.1873882536 0.1235795619 0.2631471424 -0.0001433207 0.0001898914 0.9999999659 
-0.1365739571 0.1235503116 -0.4235671685 -0.7351805577 0.6778713189 -0.0000987052 
0.2631452847 -0.1400309935 0.2371680532 0.9999999881 -0.0000723281 -0.0001361719 
0.0036366211 -0.1847735921 -0.4109436003 -0.0078341633 -0.9959382611 0.0018607373 
0.0258978354 -0.0101571195 -0.4999981720 -0.0000503341 0.0000503341 -0.9999999964 
0.2631366909 -0.1435480812 -0.0673338094 0.3990580233 0.5456111144 0.2470967112 
-0.2631436139 0.0856236954 -0.2177646458 -0.9999999997 -0.0000082166 -0.0000177701 
0.1056068587 0.1508838650 0.3161115560 0.5562704293 0.8309991289 -0.0001739848 
-0.1581736659 -0.0948415105 -0.3511577401 -0.8366869340 -0.5459700313 -0.0009669540 
0.2631423067 0.1884524353 0.0185236127 0.9999999943 0.0000859417 0.0000289438 
0.1046341588 0.1515511911 0.4058177011 0.5617116886 0.8273323755 0.0007884560 
0.2594230725 -0.1323224226 0.0865812949 0.2963151968 0.5822254376 -0.3840687975 
-0.2575101119 -0.1429581324 0.2631429697 -0.0999781934 -0.0000923883 0.9000017671 
0.1572448151 0.0538932504 0.4999961893 0.0000931934 -0.0000444264 0.9999999709 
0.2175300104 0.2631448157 -0.1491892342 0.0001126007 0.9999999925 -0.0000479238 
0.1542864656 0.1006257021 0.3408276201 0.8516451800 0.5241109596 -0.0028617319 
0.0809947481 0.0700060882 -0.4999935152 0.0000308630 0.0000780552 -0.9999999960 
-0.0400391976 0.1625997457 -0.1529171864 0.2773692529 0.0008203784 0.9580132347 
0.0237729727 0.1825805566 -0.4338142152 0.1266353072 0.9919390092 0.0032042356 
-0.0073325242 0.2185809450 -0.1576484758 0.0625537193 0.0021834528 0.9980265462 
0.1875390848 -0.2193982048 0.2631408877 0.0000981734 0.0000134005 0.9999999949 
0.2631419017 -0.1163162000 -0.1708786830 0.9999999966 -0.0000458242 0.0000153857 
-0.1336759834 0.1703423574 -0.0840128991 0.8574442332 0.0021319313 0.5123821273 
-0.2631436627 0.2271858582 0.0049078189 -0.9999999985 -0.0000085838 0.0000523114 
0.2631449186 0.2260867607 0.0372139222 0.9999999967 -0.0000200978 0.0000722209 
0.1824564356 0.0266854812 0.4228643929 0.9819304870 0.1778107516 0.0001352891 
0.0721848335 -0.2228957747 -0.2631434023 0.0000923881 -0.0001177919 -0.9999999888 
0.2299879850 -0.2631403784 0.1049914137 0.0001159114 -0.9999999906 -0.0000214700 
0.0265864240 -0.2036298668 0.2631486565 0.0000689318 -0.0001680303 0.9999999830 
-0.0988082233 0.2631472140 0.1948746280 0.0000114987 0.9999999999 0.0000077679 
0.2239967269 0.2631431603 -0.1684893643 0.0001025283 0.9999999929 -0.0000562917 
0.0205402644 -0.2631447524 0.2129593134 0.0000014364 -0.9999999966 0.0000816779 
-0.2631447354 0.1490835059 -0.1549569244 -0.9999999997 0.0000174879 -0.0000147643 
-0.1713004635 0.0155230921 -0.1578727377 -0.0034386833 -0.0637963834 0.9923359189 
-0.1518824429 0.0724599951 0.1401841937 0.0057178921 -0.4523387496 -0.8898874115 
-0.2280907930 -0.1389020117 -0.0751949892 0.0000883974 0.9007055709 0.4343984222 
-0.0103523242 -0.1837537430 0.2888091323 -0.0519782487 -0.9984732981 0.0118332534 
0.0919674178 -0.1600861157 -0.3093981660 0.4850329601 -0.8716222694 -0.0028699994 
-0.0917940049 -0.1597220898 -0.3419331505 -0.5060274932 -0.8612915942 0.0007691050 
0.2631422729 0.2384922716 -0.1318005503 0.9999999845 -0.0001683803 -0.0000358007 
0.0638373081 0.2401362685 -0.1445739587 -0.3853045634 0.0057187173 0.9214671587 
0.1486869581 0.1090178779 -0.3440120099 0.8018828227 0.5935998547 -0.0001230236 
0.1179653667 0.2631455776 -0.2568530529 -0.0000036723 0.8999982558 -0.1000318276 
-0.0575531220 0.0212411763 -0.1572201142 0.0028630235 -0.1642426316 0.9803710567 
-0.1593779554 0.1555899606 -0.0268810963 -0.0298638578 -0.9823375101 0.1847191552 
-0.0079205258 0.1983264274 -0.1575523441 0.0644388002 -0.0006832152 0.9979080348 
0.2631437711 0.1432125349 0.1756648593 1.0000000000 0.0000000000 0.0000000000 
0.2631439654 0.1606821580 0.1238124531 0.9999999991 0.0000269659 -0.0000002490 
0.1234703985 -0.1366457711 -0.3242535295 0.6694588092 -0.7428491417 0.0000410592 
-0.1187290992 0.1408149193 -0.3608172219 -0.6310824052 0.7757157685 0.0001489236 
0.1761142230 -0.0559204728 0.4280425674 0.9450578050 -0.3150181551 -0.0014869542 
0.0330907463 0.1813713069 -0.4154596858 0.1443778240 0.9880043060 -0.0001033493 
0.1022450970 0.1844795740 0.2631471744 0.0000364941 0.0002266021 0.9999999689 
-0.0805601751 0.1659122691 0.4335392875 -0.3877834938 0.9217488081 -0.0015699267 
0.1014005577 0.1156954005 0.4999902158 0.0000987677 0.0000263544 0.9999999921 
-0.2387778515 0.2290124824 -0.2631431639 0.0002211021 -0.0000598817 -0.9999999738 
0.2631460217 -0.1105129786 -0.2269601323 0.9999999968 -0.0000283982 0.0000601744 
-0.0193665077 -0.1598024661 -0.1568237014 0.0717087921 -0.0007863928 0.9974207089 
-0.0218226208 0.2380164703 -0.1567264189 0.1305560344 -0.0025249050 0.9871569700 
0.1325859154 -0.1000389845 -0.4999939502 0.0001633612 -0.0002342222 -0.9999999430 
-0.0632571674 -0.1659765856 -0.1452462415 0.4214557182 -0.0003313507 0.9019716833 
0.2215466129 -0.1825629807 0.2631396575 0.0000635687 -0.0000686240 0.9999999955 
0.0595999528 0.2631445926 0.2471550306 -0.0000017750 0.9999999992 0.0000007832 
-0.2631357289 -0.2499717193 -0.2316264844 -0.9999999468 -0.0003204556 -0.0000605445 
-0.2631432614 0.1383913811 0.1948209586 -0.9999999996 0.0000235285 0.0000025612 
-0.1211226121 0.1265984923 0.4999885696 -0.0048703121 0.0040948138 0.9997872207 
-0.2191319004 0.0933815896 -0.1272631536 -0.0000578457 -0.5815948119 0.8134783776 
0.0590575650 0.2535697549 0.2631431517 0.0000418939 0.3000291338 0.6999971158 
0.1043144750 -0.1517332433 -0.4921720131 0.4422394757 -0.6666817844 -0.2038303404 
0.0406132771 -0.2631426504 -0.2027459939 -0.0000569009 -0.9999999967 -0.0000171971 
0.0134493101 -0.0489238599 -0.5000000000 -0.0000288547 0.0000356476 -0.9999999971 
-0.1865728379 -0.0578074571 -0.2631549756 -0.0005425669 0.0001126181 -0.9999993790 
-0.2631429477 -0.2477876786 -0.0826410228 -0.9999999998 -0.0000154327 -0.0000151748 
-0.1819567049 0.1073371346 0.1159270801 -0.0017854274 -0.6632125020 -0.7433815798 
-0.1137531340 0.0002041539 -0.1577690078 -0.0001830162 -0.0020064158 0.9999979320 
-0.2631434194 -0.1019539894 0.2459553953 -0.9999999995 -0.0000071674 0.0000300378 
-0.1514015058 0.1050102516 0.2832731358 -0.8221580903 0.5675809023 -0.0012450647 
-0.1527993457 -0.1027531171 -0.3187132651 -0.8334908016 -0.5525261269 -0.0009980490 
0.1296186621 0.0538910349 -0.1493532380 -0.0075909490 -0.3519367334 0.9299837739 
0.2631441153 0.0636498566 0.2043257882 0.9999999965 -0.0000012946 -0.0000487464 
-0.1047442701 -0.1271250719 0.1180267918 0.6544079151 0.0034661250 -0.7561018206 
0.1573163212 0.2287598066 -0.0160143018 -0.9921999435 0.0038019242 0.0846472595 
0.2628401951 0.2464700210 -0.2631162531 0.2011116237 0.0014762485 -0.8000156163 
-0.1597697438 -0.0924996549 0.3708905693 -0.8618125972 -0.5019390629 -0.0003119199 
-0.0950410168 -0.1577040728 -0.3205933935 -0.5186706242 -0.8549726333 0.0012201560 
-0.0953760087 -0.1070075631 0.1261926046 0.6104208542 -0.0009522286 -0.7880285101 
-0.2270666130 -0.1018563123 0.1211788850 -0.0046862201 0.6340623057 -0.7683036350 
-0.2281421868 0.1458538074 0.0605315357 0.0018393448 -0.9206237667 -0.3854787836 
0.1742076917 -0.1873076716 0.2631421476 0.0000810229 -0.0000449478 0.9999999957 
-0.2209508566 0.1116937657 -0.2631434899 -0.0000255431 0.0000656175 -0.9999999956 
0.1662560253 0.0796246074 0.4652816090 0.9067561542 0.4197466514 0.0042706536 
-0.0015380648 -0.0578727522 0.4999997365 -0.0000150426 -0.0000450131 0.9999999973 
-0.2312471277 -0.0002655405 -0.1577840599 -0.0041222313 -0.0055681711 0.9995951295 
0.0209925022 0.2361728039 0.1566362119 -0.1438494704 0.0152066863 -0.9894827369 
0.1760027630 -0.0565741462 0.4704377418 0.9485783748 -0.3035103454 -0.0017600667 
-0.1488214015 -0.2110762572 0.2631449062 0.0000104842 -0.0000574493 0.9999999913 
0.1676307023 -0.1352762317 -0.0814163067 0.0046232679 0.8554655298 0.5175441044 
-0.1621008543 -0.2195265059 0.2631438787 -0.0000880633 0.0000166591 0.9999999960 
-0.1790479939 -0.0446730381 0.4336978105 -0.9590622479 -0.2774037883 0.0011463573 
0.1841066872 0.0066338630 0.3470954918 0.9978584290 0.0235311904 0.0007276431 
-0.1802282222 -0.2631440579 0.0402857903 0.0004389491 -0.9999997564 0.0002341087 
0.2631464691 0.0638058845 -0.1653772131 0.9999999439 0.0000648541 -0.0002731023 
0.0068548337 -0.0132587756 -0.4999974108 0.0000288224 0.0000143812 -0.9999999974 
0.0312859775 0.1521930048 -0.4999970899 -0.0000269751 0.0000526612 -0.9999999921 
-0.1733499534 -0.0624713036 -0.3741379063 -0.9522917201 -0.3051890216 -0.0000327395 
0.0251958080 0.1824919945 0.2834516436 0.1088702728 0.9940474212 0.0041216574 
0.0708458361 -0.0652393671 0.1438650099 -0.1502513036 0.2654022605 -0.9083612662 
0.1456672473 0.2631455281 -0.0895074213 -0.0006351941 0.9999995551 0.0003151914 
0.0693643008 0.1878580269 -0.2631483428 0.0001714697 0.0000354328 -0.9999999806 
-0.2563828882 -0.1576610657 -0.0155903301 -0.0878329957 0.8906879978 0.0947985183 
-0.0989697746 0.2631479973 -0.1925052496 0.0000109108 0.9999999977 -0.0000611432 
0.2631440344 -0.2397951962 0.1631288539 0.9999999955 0.0000650039 0.0000651016 
0.2631458624 -0.2504393041 -0.1650603580 0.9999999917 0.0001061256 -0.0000733336 
0.1374106777 -0.2631463724 -0.1465043469 0.0000301685 -0.9999999975 -0.0000630428 
0.0491607438 -0.1296051237 0.1506314001 -0.3265425074 0.0034390211 -0.9385386633 
0.1978485327 -0.0204677882 0.2631525267 0.0003697003 -0.0000687516 0.9999998780 
-0.1522443238 -0.1990051655 0.2631447535 -0.0000663725 -0.0000312164 0.9999999942 
0.1194030858 -0.2631448095 0.1871714318 0.0000423655 -0.9999999944 0.0000956155 
0.0343543743 -0.1811686664 -0.4610230232 0.1848644263 -0.9807861972 -0.0050598610 
0.1381071916 -0.0519128827 -0.1498007855 0.0039634863 0.3198300496 0.9405983566 
0.1891723158 -0.0155524422 -0.2631588076 0.1004434186 -0.0012772947 -0.9012373065 
-0.0593211760 -0.2050484567 0.2631460516 -0.0000315833 -0.0001241793 0.9999999892 
-0.2631449903 -0.1255818905 -0.1271528132 -0.9999999594 -0.0000531914 -0.0000155668 
-0.1489039168 0.2631455852 -0.0773051341 0.0001950534 0.9999998546 0.0002632750 
-0.0885120799 -0.2631430130 -0.1959984801 -0.0000472116 -0.9999999977 0.0000092414 
0.1822589596 0.2631490197 -0.0956983550 -0.0000042441 0.9999999975 0.0000509448 
-0.1410942362 -0.1185236988 -0.3116369441 -0.7876679652 -0.6114497656 0.0001144829 
0.0164791834 0.1836943355 0.4636977077 0.1236490764 0.9906268620 -0.0003158257 
-0.2631432483 -0.1094213962 0.2498464326 -0.9000037788 -0.0000039292 0.1000257811 
-0.0209480073 -0.0571664615 -0.4999997828 0.0000072389 0.0000064502 -0.9999999973 
-0.2631490121 -0.1706126064 0.0046817263 -0.9999999789 -0.0000314199 0.0001518853 
-0.1505370584 0.1062103602 0.3456225090 -0.8308404010 0.5565035011 -0.0010949888 
-0.1527579632 -0.2631428378 -0.1851121859 -0.0000513918 -0.9999999958 -0.0000698605 
-0.1433867083 0.2356660689 0.0664437184 0.9099226806 0.0004782804 -0.4091134496 
0.0188055466 0.1831875818 0.2844859670 0.1099220360 0.9939169559 0.0022303050 
-0.1829995835 0.0222607448 0.3663852477 -0.9886202678 0.1347371049 0.0018001885 
-0.1581961725 0.0948998020 -0.4688453351 -0.8556824696 0.5135350556 -0.0032123818 
-0.1439528007 0.1155899966 -0.3279581603 -0.7707504123 0.6330811503 -0.0006605725 
-0.0260941658 -0.1339489703 0.4999949812 0.0000077766 -0.0001938610 0.9999999808 
-0.2004515730 0.0237671058 0.1562814037 0.0044301186 -0.1686551470 -0.9809229480 
-0.0808477821 0.0853780604 0.1358130225 0.2563478772 -0.2470444800 -0.8655129888 
0.1243828062 -0.1358088784 0.3031715394 0.6806617147 -0.7325976348 0.0002894949 
-0.0206135805 -0.0125586375 0.4999993851 0.0000504042 0.0000216446 0.9999999974 
-0.2631432252 -0.0368098238 -0.2247361623 -1.0000000000 -0.0000074181 -0.0000050917 
0.1841950905 -0.0081860274 0.3423964656 0.9981457096 -0.0149335194 -0.0010608119 
0.0571900583 -0.2631456083 0.1698440092 -0.0000833217 -0.9999999727 -0.0000629408 
0.0282977675 -0.1820695061 -0.4693254537 0.1494018596 -0.9886245788 -0.0046685123 
-0.1112382644 0.2597601582 -0.1120329030 0.5707095277 0.1942355384 0.5594894937 
0.0913752948 0.1953611642 -0.2631459390 0.0000732606 0.0001036778 -0.9999999903 
0.1254247685 -0.2161562493 -0.0961929240 -0.8068168032 -0.0046426532 0.5905102094 
-0.1871487463 0.2631434877 0.2093980558 0.0000149210 0.9999999996 0.0000189382 
-0.2631437053 -0.2487350628 0.1292142806 -0.9999999997 -0.0000134489 -0.0000215443 
0.0839562694 -0.2631468712 -0.1547244335 -0.0000742477 -0.9999999789 0.0000466782 
0.2058647611 0.2631435016 -0.1978208748 0.0000618642 0.9999999972 -0.0000099728 
0.2631488971 0.0706167562 0.1599798555 0.9999998919 -0.0000320841 0.0001168179 
0.2631434414 0.0913387661 -0.2191888472 0.9999999900 0.0000644397 0.0001230534 
-0.0299148813 -0.2170043892 0.2631462528 -0.0000764924 -0.0000636752 0.9999999950 
0.0043466053 -0.1845913900 0.4420753455 0.0316806028 -0.9946096342 -0.0041181895 
-0.2631444177 0.0647333086 0.1621253686 -0.9999999881 0.0000086176 -0.0000487997 
-0.0822588622 0.1651090888 0.3579981234 -0.4309309683 0.8999187168 0.0001175756 
0.0741042689 -0.1687625609 -0.3655085588 0.4272380958 -0.9030294724 0.0001059213 
-0.2455404764 0.1991311205 -0.2631427473 0.0002240450 -0.0001214134 -0.9999999667 
0.1246511757 -0.0161103710 0.4999962031 0.0001013751 -0.0000008883 0.9999999949 
0.0740420083 -0.0256199341 -0.5000000000 0.0000155600 0.0000000015 -0.9999999994 
-0.1957170480 0.2631451051 0.1839179125 0.0000142724 0.9999999967 0.0000792741 
0.1374177024 0.2178138445 -0.0782554270 -0.8847528793 0.0052388700 0.4632745753 
0.2631411395 0.1332918099 -0.1853890564 0.9999999990 0.0000225527 -0.0000107300 
-0.2631358640 -0.2481881977 -0.2388269852 -0.9999996742 -0.0004664542 -0.0002090230 
-0.0871983300 0.1624681223 0.4152365684 -0.5043633415 0.8623873184 0.0023632730 
0.1576502042 -0.1672526103 0.0090432733 -0.9985488188 -0.0159799774 -0.0514285600 
-0.2631454418 0.1280038124 0.1399080882 -0.9999999965 -0.0000175000 0.0000639822 
0.1336217270 -0.2250884988 0.2631425879 -0.0000926303 0.0000318637 0.9999999950 
-0.1680297224 0.0755701074 -0.4360831389 -0.9009851937 0.4338438107 0.0014390137 
-0.1359930598 -0.1923125018 -0.0801096714 0.8676070109 0.0011484407 0.4924783405 
-0.0649177226 0.1724992179 0.3590260221 -0.3765152632 0.9251052548 0.0002107336 
-0.1118198679 0.0657617838 0.1434701052 0.0014735368 -0.4615793020 -0.8870977267 
0.2146472706 -0.1574731808 -0.0189973101 -0.0020438523 0.9866368470 0.1146644766 
-0.1253256540 -0.1354401527 -0.4456254694 -0.6438313797 -0.7640562730 -0.0007478131 
-0.1376603379 -0.0233225573 -0.4999924398 -0.0000082047 0.0000572938 -0.9999999973 
-0.2390486742 -0.2631413029 -0.1376611581 -0.0000925017 -0.9999999934 0.0000573392 
0.1559895742 0.0980173972 0.2716796013 0.6885589555 0.4071610190 0.1884005282 
0.1547475304 -0.0066940076 0.4999947895 0.0000306585 0.0000003019 0.9999999984 
-0.2631413531 -0.1574877806 0.2621939346 -0.5999859604 -0.0000556062 0.4000126880 
0.0435055677 -0.1903916370 -0.1524674751 -0.3053839378 0.0082555807 0.9460230775 
-0.2393746968 0.2631438027 -0.0678163815 -0.0001856747 0.9999999825 -0.0000172600 
-0.2431958004 -0.2631423443 0.0012938449 -0.0001039878 -0.9999999946 0.0000046960 
-0.1274086021 0.2631449351 -0.0974286499 0.4776157593 0.4030358304 0.3604777202 
0.0954509106 -0.1579223682 0.4396585134 0.5215177922 -0.8504089459 0.0013573422 
-0.2294308590 -0.0066667835 0.2631453636 -0.0001374196 -0.0000496098 0.9999999862 
-0.0549158900 -0.2631443741 0.1886549274 -0.0000277029 -0.9999999977 0.0000519828 
0.1268395461 -0.1772314076 0.2631451975 0.0000684593 -0.0001750344 0.9999999771 
-0.1717610383 -0.0672837338 -0.3445876057 -0.9265631820 -0.3699432769 0.0010620413 
-0.2631428556 0.2023410023 0.0408384090 -0.9999999945 0.0000786816 -0.0000068897 
0.0722246387 0.2173653427 -0.1410343925 -0.4389241270 0.0041877942 0.8936074809 
0.1592043971 0.0926394865 0.3941005625 0.8609126397 0.5066142450 0.0000963376 
-0.1622508390 0.0873533969 -0.3175616238 -0.8898876385 0.4541911802 0.0020017648 
0.0891606979 0.2356961620 0.2631427131 0.0000685765 0.0000363399 0.9999999966 
0.1614125725 0.2631475473 -0.1742801812 0.0000396534 0.9999999976 -0.0000568703 
0.0292915523 0.0042045296 -0.1577879363 -0.0077022771 -0.0029664499 0.9996836522 
-0.1675568865 -0.0765484398 0.3704938398 -0.9093207787 -0.4122033415 0.0000507404 
-0.0707982471 -0.2631438347 -0.1863612079 -0.0000934586 -0.9999999949 0.0000176843 
0.0730563394 -0.2259083121 -0.2631429671 0.0000925635 -0.0001178713 -0.9999999888 
-0.2631371653 -0.2585261685 0.2420938382 -0.7999752297 -0.2006696833 0.0007150617 
0.0175862759 0.1185456277 -0.4999963917 0.0000702687 -0.0000272837 -0.9999999962 
-0.1600678851 0.0913745202 -0.1287538998 -0.0019288530 -0.5895268765 0.8077292290 
-0.1307081132 0.2109672906 0.0887111927 0.8416368373 -0.0000559076 -0.5376412241 
0.2142190031 -0.0289662267 0.1551431426 -0.0055117458 0.2154263479 -0.9764892435 
0.1899695323 0.0980340164 -0.1239176275 -0.0002216784 -0.6222537883 0.7785279751 
-0.2631444135 0.1888556104 -0.1241907203 -0.9999999985 0.0000217982 -0.0000472072 
-0.0195665951 0.2631468001 -0.2402886032 -0.0000089449 0.9999999970 -0.0000762051 
-0.0055840124 -0.0127806616 0.1580827421 0.0272084694 0.0074246607 -0.9986561897 
-0.1078899274 0.2061675608 0.1157760241 0.6521499001 0.0011448462 -0.7549036812 
-0.0887571507 0.2065756389 -0.1309762960 0.5724688559 -0.0058993369 0.8148796015 
-0.1046082305 -0.1521360968 -0.4924548969 -0.3824764066 -0.5842840530 -0.2997825464 
0.0626382824 0.0024063152 -0.4999985199 0.0000001465 0.0000720065 -0.9999999974 
-0.1399842474 -0.0032673249 0.1577795034 0.0014405476 -0.0016721594 -0.9999952095 
-0.0063032780 -0.0693546011 0.1577181972 0.0698595278 0.0000897012 -0.9975567488 
0.1559767562 -0.2631419341 -0.1957725329 0.0000521116 -0.9999999946 -0.0000879985 
0.1138677234 -0.1453010144 -0.3854798105 0.5932449773 -0.8024407688 -0.0002306323 
0.2631454178 0.2572583884 -0.1322849010 0.8000671018 0.1998657220 -0.0000136147 
-0.0175691981 0.2631446499 0.2406586406 -0.0000225685 0.9999999992 -0.0000212856 
0.0731160762 -0.1081921766 -0.1402572581 -0.4295736419 0.0010617393 0.9009654959 
0.1179580693 -0.1480163841 0.1055272640 -0.7119468366 0.0043080167 -0.6988246116 
0.2631464414 0.2322845200 0.0097230554 0.9999999942 -0.0001001861 -0.0000078090 
0.0286018029 0.2272142873 -0.1552680700 -0.1702514452 0.0092205906 0.9853575118 
-0.2614676587 -0.2631397880 0.1200660672 -0.4000657442 -0.6000077665 0.0000174438 
-0.2631432305 -0.1359327385 0.2177094406 -0.9999999989 -0.0000355498 0.0000238531 
-0.1513415762 0.1049773111 0.4037042858 -0.8292910398 0.5588163005 0.0003031026 
0.2631439101 -0.2300753622 -0.1648184267 0.9999999943 0.0000582982 -0.0000753071 
-0.1698757550 -0.2631399242 0.2175724905 -0.0000206151 -0.9999999989 0.0000338545 
-0.0765310164 -0.2035068775 -0.2631451020 -0.0000858697 -0.0001994270 -0.9999999645 
0.0559972363 0.1482850317 0.4999937297 0.0000576442 -0.0000229208 0.9999999960 
0.1952094775 0.0680747018 -0.1423810694 0.0016048969 -0.4210121531 0.9070516166 
0.2631432256 0.2442029366 0.2452329169 0.9999999919 0.0001218729 -0.0000156516 
-0.0535085255 -0.1250398082 0.4999964844 -0.0000119003 -0.0001251007 0.9999999893 
0.2631437711 -0.0765109046 -0.1853829198 1.0000000000 0.0000000000 0.0000000000 
-0.1801574572 -0.0389434014 0.4613704951 -0.9777829170 -0.2025277983 -0.0007691600 
-0.1138538539 -0.1648401777 -0.2631508631 -0.0002631620 -0.0004398459 -0.9999998370 
0.0172872944 0.1833533058 0.2846206430 0.1099220360 0.9939169559 0.0022303050 
0.2631411395 -0.1697033689 0.0042934036 0.9999999988 0.0000165997 -0.0000079199 
0.2508422590 -0.2631372972 -0.2092700914 -0.0000627625 -0.9999999833 0.0001663952 
0.0742471060 -0.1216684831 0.1398101079 -0.4177292032 0.0039351016 -0.9056704930 
-0.1504587862 -0.1942012297 0.0489757241 0.9447135562 -0.0073008665 -0.3153694830 
-0.0570226506 -0.2552042366 0.1480068243 0.2222006299 -0.1030884782 -0.6644444994 
0.0725136692 0.1696219663 -0.3856061005 0.4330043482 0.9002102125 0.0002235051 
-0.2531862005 -0.0383656555 0.2631418045 -0.0001446964 0.0000252972 0.9999999892 
-0.2447411760 -0.2631406098 -0.0950262976 -0.0001174323 -0.9999999922 -0.0000422548 
-0.0399380726 -0.1800033935 0.4902574309 -0.2240150459 -0.9716962327 0.0065371309 
-0.0962281168 0.1272795155 0.4999893873 -0.0001551509 0.0001464934 0.9999999769 
0.0391510057 0.2631509916 -0.1628261951 -0.0668467758 0.7968517867 0.1893118696 
0.1139655258 -0.1150541608 0.1095401879 -0.3643479584 0.3711394628 -0.6791712707 
-0.1136668209 -0.1930775397 -0.1098189366 0.7272735558 0.0035280365 0.6829867572 
0.0765643582 -0.1153173059 0.4999967718 0.0000980022 -0.0001431349 0.9999999838 
-0.2631441999 -0.1141676854 0.2029792071 -0.9999999992 -0.0000272728 0.0000286911 
-0.1748207967 0.0583421094 0.4922738100 -0.6654613153 0.2158144850 0.2989018038 
0.2631437711 0.1949514354 0.1249045758 1.0000000000 0.0000000000 0.0000000000 
0.2319659635 -0.1155791964 0.1076614825 0.0020870017 0.7297950238 -0.6798182685 
0.1389044397 0.1209140808 0.4924129348 0.5266088387 0.4610219765 0.3031523019 
-0.1805431899 -0.2631458983 0.0075820723 0.0000674101 -0.9999999926 0.0000555550 
0.0150035568 -0.1069155441 0.4999987106 -0.0000021469 -0.0000778310 0.9999999970 
-0.2098059035 -0.2164309809 0.2631413757 -0.0000510567 0.0000741849 0.9999999959 
-0.2221743015 0.1524810244 -0.0403733998 -0.0041273295 -0.9674465351 0.2522367305 
0.0395577071 -0.2076642993 0.1532907018 -0.2294499227 0.0022773016 -0.9684012192 
0.2530755707 0.2631421854 0.1650764913 0.1001757738 0.8999909881 -0.0000697983 
-0.2631444487 -0.2113281622 0.0153501563 -0.9999999999 -0.0000078748 -0.0000086563 
-0.0290289979 -0.1627284493 0.4999923528 -0.0000177299 -0.0003836673 0.9999998935 
-0.1882424592 0.1149536619 -0.1082602073 -0.0001168277 -0.7255389283 0.6864756014 
-0.1377095527 -0.2631418313 0.2068801560 -0.0000416274 -0.9999999976 0.0000528720 
-0.0260717903 -0.2436921647 0.1559525547 0.1493621406 0.0032909531 -0.9853010467 
0.2631463670 0.1085900118 0.2313752858 0.9999999967 -0.0000004961 -0.0000809273 
-0.1753190842 -0.0276627484 -0.4999930510 -0.0982464243 -0.0185268036 -0.9014603559 
0.1176325311 0.2631482161 -0.1203119346 -0.0006829227 0.9999995459 0.0002746104 
-0.1340239486 -0.2080176148 -0.0833507861 0.8508765534 -0.0005946756 0.5253603157 
-0.1591988053 0.0933211781 0.3939994306 -0.8511358076 0.5207707747 0.0006972725 
0.2260728398 0.1022232298 -0.1209313096 0.0029937332 -0.6361845839 0.7665718058 
-0.2631422170 0.1899104806 -0.2020528553 -0.9999999951 0.0000347168 -0.0000837255 
0.2631499947 -0.2629477651 0.0283910282 0.4001405946 -0.5999532345 0.0000088482 
-0.0466523632 0.2509306026 -0.1508622277 0.2674769271 -0.0008136805 0.9635636952 
0.2631417264 0.2035463873 0.2317655263 0.9999999936 0.0000132039 -0.0000670985 
-0.2283696320 -0.0804866989 0.2631463961 -0.0000526378 -0.0000092538 0.9999999983 
-0.1572899193 0.1732392360 0.0171223626 0.9905325773 0.0008196067 -0.1040592962 
-0.0637663188 0.1734231925 0.1449796436 0.4623223150 -0.0046467586 -0.8844892216 
0.2509786084 -0.2631364286 0.1192467392 0.0002685897 -0.9999999635 0.0000092939 
-0.2631429176 -0.1747916655 -0.1491404676 -0.9999999995 -0.0000165527 -0.0000270313 
-0.2031113890 -0.2018371791 0.2631407508 -0.0000703485 -0.0000892949 0.9999999902 
0.1107339305 0.2224703542 0.2631414722 0.0000721198 0.0000507835 0.9999999960 
-0.1196577854 -0.2351984303 -0.1029209524 0.7508800457 -0.0035444771 0.6604027404 
0.0610693072 -0.2631449751 0.2010643662 0.0000292854 -0.9999999980 0.0000291961 
0.0499204359 0.2631448537 0.2524150596 0.0000203447 0.9000098443 0.0999913527 
-0.2364672111 0.2631441361 -0.0763547885 -0.0001824032 0.9999999831 -0.0000211911 
0.0933782429 0.2631495534 -0.1436530911 -0.0001208582 0.9999999539 0.0002138101 
-0.1703722253 -0.0911265872 -0.2631592584 -0.0006776248 -0.0003785873 -0.9999994462 
0.2631437711 -0.1977769437 -0.1146564339 0.9999999987 0.0000317064 0.0000002873 
0.2631431093 -0.0884720586 -0.1393340182 0.5999040184 0.1991925666 0.3441214634 
0.2545160250 0.0518582129 -0.1497829617 0.1989979760 -0.2724968977 0.7476089745 
0.1509497333 -0.2226055900 -0.0463252884 -0.9539895483 -0.0039126489 0.2973090339 
-0.1296681815 -0.2631440189 -0.1793844404 -0.0000097041 -0.9999999966 -0.0000821042 
0.2270136858 -0.1523841703 -0.0419370103 0.0050447836 0.9661352779 0.2450668199 
0.0372475475 0.1810035798 0.3240859550 0.1827881436 0.9793712763 -0.0010974836 
0.0361680644 0.2293515060 -0.1539807602 -0.1866759494 0.0067253112 0.9810483279 
0.2050488346 -0.2631420231 0.0724475301 0.0000635993 -0.9999999976 0.0000142114 
0.2182701964 0.1222729365 -0.2631429675 0.0001697663 0.0000856264 -0.9999999818 
-0.2461645401 0.1732182040 0.2631459533 0.0001306009 -0.0000484677 0.9999999899 
0.2009785981 0.2631482074 0.0503921752 0.0001104689 0.9999999851 -0.0000887274 
0.2235916874 -0.2631418199 0.0211296342 0.0000592025 -0.9999999979 0.0000263043 
-0.2413435803 0.0610351483 0.2631482203 -0.0000868918 -0.0000182540 0.9999999937 
0.1960040275 -0.1793670429 0.2631410006 0.0000503329 -0.0000376705 0.9999999979 
0.2631411395 -0.1859444081 0.2123954384 0.9999999995 -0.0000141701 0.0000039698 
0.1343514643 -0.0953714196 -0.1257361420 -0.0090868028 0.6034301042 0.7973641197 
-0.0996429298 -0.0801915521 0.4999989262 -0.0001267091 -0.0001249468 0.9999999817 
