-0.1391566409 0.0104077737 0.1593681305 0.0006205761 -0.0003608968 -0.9999847935
-0.2072392599 0.2649349889 0.0399276478 0.0000225099 0.9999999996 0.0000177526
0.1295651233 -0.1108911889 0.1122136442 -0.0827264668 0.6680724991 -0.6658939817
0.2619551877 -0.1483616476 0.1694320709 0.9999999971 -0.0000084919 0.0000411633
-0.0968039934 -0.1579646485 -0.2929527399 -0.5212719938 -0.8533595350 -0.0072809771
-0.0023532944 -0.1984185910 0.2597283945 -0.0004150877 -0.1000622233 0.8967222619
0.1069117724 0.0117357991 -0.5000833200 0.0000441610 0.0000229903 -0.9999999964
0.1654479102 -0.0717192889 -0.1497641952 -0.0088061877 0.4321281320 0.9017448995
-0.1421610424 0.2658601212 0.2373102526 -0.0000522670 0.9999999976 0.0000403784
-0.2240670337 0.2665993108 -0.2572772231 -0.0004170540 0.3669210013 -0.6749390993
0.2581484577 -0.2354043381 -0.1311237536 0.9999999968 0.0000738241 -0.0000072424
-0.0036294868 -0.0368427623 0.4969974857 0.0000076667 0.0000648492 0.9999999974
0.0288812609 -0.2553111507 0.2496924068 0.0000127542 -0.9999999971 0.0000743603
0.0954712441 0.0697291602 -0.4987840418 0.0000054793 0.0000816894 -0.9999999966
-0.0888245868 -0.1429964042 0.1302903725 0.5115144036 0.0027904216 -0.8571813325
0.2607614302 0.1511068084 0.0411989455 0.3032466423 -0.2953977749 -0.0683511296
-0.2003630167 -0.1527207743 0.0006397608 0.0034078052 0.9999453982 0.0026734563
0.1743851210 -0.0434125432 0.4763126213 0.9787184806 -0.2048156818 0.0077403053
-0.1877695646 -0.2645722907 -0.1283742166 -0.0000575454 -0.9999999962 -0.0000492494
-0.1599920685 0.0915153180 0.3631134599 -0.8870138693 0.4580943405 0.0003903325
-0.0210236442 0.0493251661 0.1576160918 0.1156869751 0.0033514307 -0.9900416803
0.0161171262 0.2214047255 -0.2549370983 -0.0000103152 0.0002056790 -0.9999999748
-0.0191146109 0.1432936517 0.5044671003 -0.0001349540 0.0001922317 0.9999999711
-0.0209781044 0.1824438835 -0.3227223830 -0.0778660018 0.9944017621 0.0014285132
0.2642622396 0.1395846838 -0.1813030186 0.9999999993 0.0000150351 -0.0000071533
-0.1656361063 -0.0505459342 -0.1456604394 0.0006719507 0.3442788957 0.9332188525
-0.1752254480 -0.0990661158 0.1228330621 0.0004470350 0.5984638952 -0.7994798664
-0.0203761535 0.1998233999 0.1543697671 0.0833825913 -0.0046836822 -0.9965066014
0.2332542370 -0.1373112459 -0.0851031309 0.0026095655 0.8304939679 0.5568110318
0.0623491759 -0.2182541258 -0.2603352821 0.0000919493 -0.0001175934 -0.9999999889
-0.1771846434 -0.0447436175 -0.4781550165 -0.9625005813 -0.2653625234 0.0042662492
-0.1782031814 -0.0821080274 -0.3842228479 -0.9165258621 -0.3949615636 -0.0001946039
-0.2628444610 -0.1971032432 0.0245413323 -0.9999999922 0.0000214267 0.0000469208
-0.2582308207 0.2264575699 -0.2675903131 -0.2001053789 0.0001039801 -0.8001376884
0.1147968552 0.0074158839 -0.1678074918 -0.0011011626 -0.0647396082 0.9922877153
-0.1158832653 0.1419120571 -0.4352963423 -0.6196001447 0.7837444843 -0.0003274112
0.2362520953 0.2628096563 0.2162732641 -0.0000551506 0.9999999945 0.0000103627
0.0728093800 -0.0800359111 0.1383230819 -0.2880669995 0.1345846440 -0.9051499760
-0.1407114733 -0.2636560163 0.2134880484 -0.0000459023 -0.9999999975 0.0000529698
-0.1781852660 0.0550299376 -0.3919498085 -0.9517785015 0.3067859818 0.0000397747
-0.0030837591 -0.1751084517 0.1566621307 0.0629340916 -0.0001714324 -0.9979764927
-0.1533831476 -0.0962794521 0.2861838634 -0.8422170436 -0.5367060927 -0.0030377426
-0.1145266198 -0.2457925543 -0.2602538239 0.0000286152 -0.0000136687 -0.9999999994
-0.2590364428 -0.1745693704 0.0424969222 -0.9999999956 0.0000564493 0.0000107559
0.2158572550 0.2495010342 0.0562676258 0.0001967710 0.9999999804 -0.0000204977
0.1264301453 0.0433672699 0.1488335485 0.0025628916 -0.2278049714 -0.9737034079
0.1636470614 0.0769863401 0.4923767812 0.7291365996 0.3295682078 0.2051172431
0.0288474173 -0.2644846302 0.2130922823 -0.0000042225 -0.9999999963 0.0000853367
0.2564763179 -0.0837107461 -0.1792270152 0.9999999978 -0.0000114007 -0.0000320723
-0.2615129897 -0.1416155966 0.0802564255 -0.8992660970 0.0829080543 -0.0558165103
-0.2266513570 -0.2355811381 0.2669696761 0.0001256550 0.0000793039 0.9999999872
-0.1897875263 -0.1024947300 0.2661128364 -0.0000420310 -0.0000796003 0.9999999926
-0.0295613061 -0.1800905769 -0.3167364811 -0.1680967422 -0.9820248955 0.0002998846
-0.0737178391 0.1653361354 -0.4710778099 -0.3882275332 0.9215613090 0.0009315359
-0.0732539872 0.0647650891 0.5051154472 -0.0000724941 0.0000004738 0.9999999974
-0.1777021194 -0.0287677234 -0.4642188820 -0.9877964066 -0.1556265221 0.0017105273
-0.2597438500 0.1550262058 -0.0173286977 -0.3027330874 -0.6953932464 0.0596597888
0.2658858690 -0.0389234122 -0.2589847958 0.3000268163 -0.0000421187 -0.6999584796
0.2212604875 -0.0384258743 -0.1528094122 0.0009538766 0.2471128090 0.9650869610
0.2133661316 -0.2580599708 0.2629942787 -0.0000480314 -0.7999610727 0.2000214386
-0.0900072102 0.1291428916 -0.1371286388 0.5349091627 -0.0133120137 0.8427666598
0.0378900568 -0.2023306454 0.1491526447 -0.2089117537 0.0037697543 -0.9741193396
-0.0591203705 -0.1801544933 -0.2644053686 -0.1679442938 -0.4695050790 -0.4960666010
-0.2638253987 0.1447807888 0.2095103620 -0.9999999997 0.0000143131 0.0000161445
-0.2663905869 0.1043047036 -0.2072644008 -0.9999999986 0.0000062321 -0.0000501015
0.1779671298 -0.0586236846 0.5073816857 0.1840248462 -0.0795146304 0.8015052632
-0.0519920707 -0.2555934003 0.2123871556 -0.0000207077 -0.9999999979 0.0000565074
-0.1352032537 0.1170736057 -0.5025329769 -0.2226631821 0.2015522282 -0.7012780492
-0.2287624116 0.0264723108 0.1533751339 -0.0087807008 -0.2081064254 -0.9780502992
-0.0171316795 -0.1835115969 -0.3434145119 -0.0711988797 -0.9958982955 -0.0021957517
-0.0402050305 0.0287577451 -0.1534699605 0.0055854226 -0.1859705321 0.9794752456
0.0476497309 0.1826266849 0.4493968403 0.2462690453 0.9653508768 -0.0015325310
0.0232985935 0.1889209409 -0.3622436550 0.1326038441 0.9911650366 0.0025594645
-0.0331638734 -0.1029869446 -0.1650522818 0.0912766471 0.0000969645 0.9933432629
0.1220937033 -0.1189299934 -0.1062378143 -0.1435672358 0.5829932573 0.6805673895
-0.1063369286 -0.1455530483 -0.4795542662 -0.5991322008 -0.7976347995 -0.0009290792
-0.0536523324 0.1731380605 0.3847928244 -0.2528104670 0.9662999288 0.0010555447
0.2033504978 0.2663127742 0.0401751147 0.0001288832 0.9999999859 -0.0000662731
-0.0851106058 -0.2623930298 -0.2112181522 -0.0000590734 -0.9999999981 -0.0000179433
-0.2485646639 -0.1022005050 -0.1138807605 -0.1012993153 0.6177190029 0.6529795436
0.0911030595 0.2674047887 -0.1748330856 0.0000119369 0.9999999983 -0.0000571136
-0.2559737815 -0.0386242167 0.2608922624 -0.1001308025 0.0000230365 0.9000003706
-0.1157471389 -0.0499661880 0.4993230406 -0.0001263191 0.0000859133 0.9999999878
-0.0859017038 -0.2024695310 0.2528781380 -0.0000577921 -0.0001660598 0.9999999837
0.2700544236 -0.0911201174 0.2067502648 0.9999999954 -0.0000509189 -0.0000263025
0.1136240710 0.0933676179 -0.5041608065 -0.0000227384 -0.0000201020 -0.9999999884
-0.0622433205 -0.0475061254 -0.4948647899 -0.0000402296 -0.0000134240 -0.9999999966
0.0241174729 0.2623961020 0.2476353207 0.0000122279 0.9999999998 -0.0000006731
0.2077799353 -0.1378169892 -0.2639528734 0.0001056341 -0.0000622402 -0.9999999925
0.0049554406 -0.1055493433 -0.1483752288 0.0690331671 -0.0002767888 0.9976143269
0.1284612676 0.1445973498 -0.3205177666 0.6800850977 0.7331324519 0.0002895501
-0.2440162634 -0.2653988580 -0.2236735333 0.0001022981 -0.9999999941 0.0000273075
0.2673418808 0.2369918369 -0.1092884946 0.9999999888 -0.0001227751 -0.0000716987
0.2589079502 0.2657025319 -0.1688126589 0.1002196233 0.8999830586 0.0000013965
0.1501597988 0.1131422304 -0.2677009981 0.0775218675 0.0641899976 -0.8993513090
0.2653817435 -0.2026414509 0.2601899930 0.6000196986 -0.0000547160 0.3999491156
0.2325534757 -0.2690402328 0.0191053751 0.0001582555 -0.9999999838 0.0000059479
0.2042961457 0.2637465105 0.1310531345 0.0001133930 0.9999999925 -0.0000342004
-0.2118508636 -0.1395708167 -0.2647084064 -0.0001355207 -0.0000339365 -0.9999999902
0.2586946108 0.2612390996 0.1335527572 0.5001544859 0.4999755257 -0.0000430913
-0.2546455308 0.1630428223 -0.0339992080 -0.4916943962 -0.4852293247 0.1127918147
-0.1939732076 0.2679395939 0.2614929811 0.0000788644 0.8999957701 0.0999865933
-0.0173599391 -0.2170725172 -0.1606934014 0.0770752958 -0.0024376621 0.9970217711
-0.2058977904 -0.0844267051 -0.1229568414 -0.0028207289 0.5784405342 0.8156957152
-0.2647430317 -0.2386429522 -0.1904989233 -0.9999999994 -0.0000332328 0.0000006695
0.0877744245 -0.1453271452 0.1335599600 -0.5694283188 0.0097169117 -0.8217993623
0.1180779582 -0.2313515907 0.2612600372 -0.0000764846 0.0000243966 0.9999999966
0.1443857037 -0.1134965916 -0.3298376527 0.8004351324 -0.5951522913 0.0003076658
-0.0853442287 0.1235429866 -0.5003828961 -0.0001503916 0.0000725534 -0.9999999861
0.0510097824 -0.2595734004 -0.2310791456 -0.0000151746 -0.9999999993 -0.0000340982
0.2381670872 -0.2650517962 0.0442574553 0.0001997266 -0.9999999788 0.0000149688
0.1452651067 -0.1813636127 -0.2701528871 0.0000437442 -0.0001152672 -0.9999999909
0.1644333019 0.2614024738 0.0160991946 0.0001041713 0.9999999456 -0.0003130154
-0.1838316406 0.0178185414 0.2633497424 -0.4984307358 0.0589798845 0.2994468012
0.0275837236 0.1803991922 -0.3646965808 0.1321276350 0.9912283153 0.0029521371
0.1627061711 -0.0884769141 -0.4537378383 0.8708038722 -0.4882947207 -0.0001834792
-0.1294040917 -0.2186321048 -0.0786448779 0.8502210130 0.0002468671 0.5264201159
0.0957384981 -0.1553605457 0.4049355012 0.4463645622 -0.8948511386 0.0000371712
0.1678040453 0.0739985766 -0.2656487706 0.4611348747 0.1931545520 -0.4891803775
0.0184230726 0.0360908909 -0.1546840061 -0.1256649586 -0.0088444838 0.9868110288
-0.0096656642 -0.0232665262 0.4921753326 0.0000504661 0.0000145196 0.9999999971
0.2501073925 0.2278685047 0.2498348324 0.5001992457 0.0001445968 0.4999888842
0.0278576470 0.0557665768 -0.4991208282 0.0000000745 0.0000218572 -0.9999999992
0.2659576758 -0.0535590552 -0.1700953523 0.9999999953 -0.0000135195 -0.0000802091
-0.2677813479 0.0820519964 0.2578606899 -0.5000110545 0.0000131385 0.5000092099
-0.2653029164 0.0933335937 0.1924412616 -0.9999999994 0.0000086120 -0.0000015649
-0.1603880999 0.2171234781 -0.0006263351 0.9999784914 0.0014620966 0.0046451027
-0.1294625376 -0.1312790119 -0.4265097274 -0.7187106670 -0.6928969965 0.0005011765
-0.1321433261 0.1279879974 0.3835317152 -0.7396238409 0.6730204732 0.0000226986
-0.0862925354 0.2653289311 0.2592440809 -0.0000042010 0.9000049635 0.1000352898
0.0066701032 0.1867773292 -0.4085834667 0.0332229655 0.9945938627 -0.0002128013
-0.2102270242 -0.0368539043 -0.1496957914 0.0024142521 0.2280838733 0.9736383057
-0.0100144352 -0.0830053669 0.1622258917 0.0697626923 0.0007972309 -0.9975632311
-0.0684155413 -0.1448794566 0.5061563024 0.0000718611 0.0000616176 0.9999999752
-0.1818574167 -0.1385219427 0.0772352172 0.0006605965 0.8679545595 -0.4886811078
-0.0909318420 -0.1724242840 -0.4767608239 -0.4340458518 -0.8983815091 0.0010260547
-0.2526732137 -0.2422477728 0.0841021495 -0.7749794190 -0.2662030559 0.0000112440
-0.1908968820 0.0290466525 -0.1518711535 0.0016147921 -0.2196950416 0.9755672612
0.2576328701 0.1840400028 -0.1386804095 0.9999999946 0.0000865354 0.0000293912
0.1276214012 -0.2381810782 -0.0920259516 -0.8093335255 0.0049845645 0.5848463801
-0.1732074255 -0.1580140990 -0.0293529551 -0.0251380014 0.9761261765 0.2157446837
0.0850687971 0.0084205155 -0.1557342011 0.0008234865 0.0040857665 0.9999912460
-0.1111987232 -0.2632121159 0.1532853931 -0.0000293843 -0.9999999986 0.0000312633
0.2684968532 -0.1928968587 -0.0880528714 0.9999999987 0.0000317131 0.0000002225
-0.2126532747 -0.2575082546 -0.2701184910 0.0000201935 0.0000182183 -0.9999999993
0.1366870231 0.1397438155 -0.4363473600 0.6777802293 0.7352573880 0.0029844559
-0.2181933225 0.0645855977 -0.1423039677 -0.0000357387 -0.3968274444 0.9158529128
-0.1231265349 0.1374848098 -0.3843142432 -0.7035972739 0.7076160993 0.0002751051
-0.1514678617 0.2371120358 -0.0368816004 0.9789959929 -0.0042723129 0.2037601846
0.2624193565 0.2205392433 0.2685560749 0.3000373922 0.0000059704 0.6999624432
-0.0754232752 0.1214307296 0.1383720483 0.4938046591 0.0051255211 -0.8666308775
-0.1198481662 0.0354671964 0.1592048786 -0.0005793899 -0.1897537747 -0.9772440457
-0.2505043080 -0.2671702372 -0.2709586899 -0.0001815183 -0.1999819500 -0.8003135709
0.2612445918 0.0405957787 0.2459918050 0.9999999832 -0.0000438982 -0.0001505535
0.2758382069 0.2019550263 0.1738698494 0.9999999997 -0.0000002053 0.0000074671
-0.0502326133 -0.1880387723 -0.2628809205 -0.0221537592 -0.0985483165 -0.8999400135
0.2051472770 -0.1903590827 -0.2538773244 -0.0000112139 0.0000143327 -0.9999999982
-0.0809056014 0.1602908735 -0.1354730439 0.4887559512 0.0072027360 0.8721038360
-0.1756192825 0.2618882433 0.2362301366 -0.0000328616 0.9999999989 0.0000185680
0.2237299744 0.0175463155 -0.2724384930 0.0001747144 0.0000536669 -0.9999999822
-0.1344517224 -0.1329873492 -0.0965782487 0.3993206449 0.4157739570 0.5796818154
0.2434778252 0.2651243094 -0.2251850852 0.0000715938 0.9999998924 0.0002722882
0.2651539510 -0.1754171249 0.0351893157 0.9999999974 -0.0000011280 -0.0000719487
0.2677412156 0.1861652529 0.0059468736 0.9999999972 0.0000362761 0.0000308088
0.1688724916 0.0505694614 -0.4170998179 0.9470462630 0.3081224983 -0.0006488114
0.2647762288 -0.1523846418 -0.1977710464 1.0000000000 0.0000000000 0.0000000000
0.0184612850 -0.1821096580 -0.2880079983 0.1113277281 -0.9923011613 0.0000733031
0.2491250643 -0.1811194564 0.2688707608 -0.0000382284 -0.0000611327 0.9999999974
0.2415157422 -0.0841425874 0.1329660447 -0.0029600666 0.5554405061 -0.8291522341
0.0240538178 -0.2142174203 -0.1630969060 -0.2343849192 0.0001479200 0.9656001761
-0.2661242682 -0.0987937382 -0.2087309114 -0.9999999998 -0.0000148301 -0.0000143639
-0.1258495453 0.1350964326 0.4454748426 -0.6873884402 0.7227099340 0.0004016483
0.1762989356 0.2596317124 -0.0946198984 -0.0000229367 0.9999999948 0.0000888325
-0.0768348559 -0.1718270118 0.3745683357 -0.3979850555 -0.9163618964 0.0000224971
0.1448491949 -0.2668614627 0.0960918688 -0.0000368706 -0.9999999842 -0.0001059116
-0.2026988340 0.1212076102 0.1250477787 0.0021743366 -0.7045493226 -0.7096236309
-0.1139433055 -0.1794303960 0.1087693534 0.7424952281 0.0012540035 -0.6677800626
-0.1308163960 0.1547490615 -0.1050754689 0.7993291239 0.0120845904 0.5974960973
0.0754699178 -0.2619490741 0.2059431582 0.0000193115 -0.9999999967 0.0000636198
0.1406186811 -0.2666439297 0.0895611757 -0.0000843535 -0.9999999773 -0.0001552034
0.2601411456 -0.1680583678 -0.0853120616 0.9999999869 -0.0001068944 0.0000278367
0.0331965025 -0.1860882059 0.3539166398 0.1461397166 -0.9877844457 0.0035662221
-0.0353180715 -0.0393718534 0.4952115851 0.0000360033 0.0000002137 0.9999999987
-0.2648515669 0.2413325573 -0.2124488396 -0.9999999632 0.0000427426 -0.0000746088
-0.1218331086 0.1486334330 -0.0918511935 0.8001452109 0.0182623872 0.5991326716
-0.0940805452 -0.1637800785 -0.1219693399 0.6307264888 0.0001668688 0.7760051988
-0.1836959312 0.2637208825 -0.1826761938 -0.0000166520 0.9999999972 -0.0000710559
0.0571104708 -0.0973833890 0.1447322025 -0.3895142008 -0.0019187075 -0.9209809540
0.1214810455 -0.1515365927 -0.0986688996 -0.8380113312 -0.0050336064 0.5397921925
-0.0127230965 -0.1396780340 0.1601547357 0.0702905699 -0.0013517109 -0.9975249805
0.1854032725 -0.0484200212 -0.3203576286 0.9281894750 -0.3677470169 0.0020996078
-0.1648071118 0.0771550704 0.4744769843 -0.9239982587 0.3776999610 0.0005559639
-0.1734694546 -0.1440012577 -0.2675166126 -0.0001374286 -0.0000496683 -0.9999999892
0.1369841528 0.1395841572 0.2627340470 0.0682026085 0.0733198287 0.8990786105
0.1301547185 0.1410757895 -0.4454035322 0.6777802293 0.7352573880 0.0029844559
0.0379773225 -0.2646841014 0.1726470776 -0.0000454496 -0.9999998865 -0.0001724615
-0.0764133384 -0.1605680463 -0.4834945555 -0.4322075624 -0.8991360876 -0.0001850238
-0.1109813708 -0.2426103829 -0.0999254154 0.7346649194 -0.0109614284 0.6766320865
-0.2026789602 -0.2541312144 0.2119135073 0.0000222176 -0.9999999976 0.0000532040
0.2023610173 -0.0114029581 -0.1538359663 -0.0014894013 0.0655219379 0.9925088438
0.2571715270 0.2408319827 0.0855502562 0.9999999860 -0.0001674147 -0.0000000852
0.2417818744 0.0968211410 0.1326702902 -0.0004717103 -0.5973812695 -0.8019279363
-0.0566524395 -0.1761449203 -0.3497227613 -0.3229332332 -0.9428110796 -0.0005647311
0.2141335237 0.2583134402 -0.2091727097 0.0000587991 0.9999999970 0.0000462456
-0.2187221053 -0.1264612739 -0.0951688624 -0.0017297604 0.8011884013 0.5962969480
0.0449479443 -0.0196563914 -0.4963926018 -0.0000143519 0.0000287825 -0.9999999984
-0.0056275360 -0.1480942358 -0.1603521033 0.0475940641 -0.0018443698 0.9963249412
-0.1517864514 -0.1858819937 0.0432093718 0.9601917986 -0.0055977836 -0.2636438352
0.2596728959 -0.1193309661 0.1253889180 0.9999999072 0.0001534482 -0.0000192262
0.0533477939 0.0577898364 0.1257313497 -0.3067137880 -0.1289398375 -0.8951863287
0.0532280029 -0.0908081393 -0.1484291181 -0.3869085873 -0.0062051064 0.9220740959
0.0592756894 0.1853391669 0.3910593038 0.3044253181 0.9525309648 0.0001456618
-0.1366401419 0.2027408334 0.0750897242 0.8829697526 -0.0006092531 -0.4617943726
-0.1562005852 0.0188239774 0.1602407680 -0.0025971591 -0.0866178613 -0.9888440999
0.2607656739 0.0352826597 0.2321390207 0.9999999898 -0.0000291513 -0.0001135020
0.1977014103 -0.2656987606 -0.1155258422 0.0001006008 -0.9999999947 -0.0000132963
0.1385446690 -0.1238280499 0.1060821933 -0.7549547056 -0.0834372776 -0.4598488915
-0.0611118925 0.1294368586 0.5069725835 -0.0000922445 0.0001179463 0.9999999859
0.1518047559 0.1173395498 -0.2796038247 0.7768336618 0.6296830198 0.0004919214
0.2662358828 0.0018081047 0.2418908047 0.9999999973 -0.0000288721 0.0000295445
0.1799204854 0.1625219557 0.0433217300 0.0117470014 -0.9732500107 -0.2183944260
-0.0721733282 0.0907086590 0.1414119803 0.4451859412 -0.0411786489 -0.8714077725
-0.2663489128 0.0006619118 -0.2105682907 -1.0000000000 -0.0000000789 -0.0000086975
-0.2629902259 0.1230873342 -0.1979878541 -0.9999999988 0.0000091679 -0.0000448157
-0.1574329362 0.0935970918 0.3152492314 -0.8600727517 0.5052332978 -0.0010925322
-0.2464229907 0.0191082883 0.2669487136 -0.0001223485 -0.0001322941 0.9999999838
0.0330627908 -0.1809843046 -0.1549121802 -0.1746318926 -0.0013535273 0.9821803561
0.1019528032 0.1414648320 -0.1208215164 -0.6555620448 -0.0012787974 0.7520614162
0.1767245875 0.1103503898 0.1025091654 0.0059558175 -0.7288439940 -0.6846520353
0.2489595593 -0.2541130634 0.2568356328 0.0004046032 -0.9999997927 0.0001502994
-0.0290972159 -0.0663575549 -0.5015410195 -0.0000009737 -0.0000594320 -0.9999999973
0.1255299985 0.2565800700 -0.2343065814 0.0000361396 0.9999999989 -0.0000305654
0.0815589590 0.2616995637 0.1389200239 -0.3145237217 0.3961768143 -0.5110205048
0.2172569925 0.1180511103 -0.1051648042 0.0044954214 -0.7068040495 0.7073846529
-0.2654215043 0.0827873254 -0.2148417108 -0.9999999988 -0.0000061012 -0.0000311302
0.0169644370 0.1837849829 0.2788430987 0.0955729998 0.9946886458 -0.0014872373
-0.1545384963 -0.1026504469 0.2872023210 -0.8245903058 -0.5657224527 -0.0011556331
-0.1809248308 -0.1381855390 -0.2675710283 -0.0001377357 -0.0000355464 -0.9999999899
0.2680800164 -0.2296624024 -0.1555072538 0.9999999944 0.0000579235 -0.0000738486
0.1246116472 0.1105900512 0.1138616474 0.0059896628 -0.6642718879 -0.7450762351
-0.0845617061 0.0940858464 0.5121042395 -0.0000942511 0.0000224153 0.9999999942
0.0452998724 -0.2408133082 -0.1473939642 -0.1933491624 -0.0037470927 0.9759878827
-0.1468526513 0.1509125107 -0.0508177107 0.4835671320 -0.4675783076 0.3607361041
0.1182212489 -0.2595522876 0.1768848727 0.0000415157 -0.9999999951 0.0000881608
0.1527825280 -0.1588124014 0.0539926892 -0.9451730051 0.0127067243 -0.3260081703
-0.1642729055 0.2672580701 -0.2267884583 -0.0000786465 0.9999999968 -0.0000117444
-0.2607157055 -0.0662683643 0.2513059853 -0.9999999995 -0.0000101111 0.0000254525
-0.0885024833 -0.1979149633 -0.1444355917 0.4788817818 0.0002597951 0.8778745283
0.2598517663 0.1570901933 -0.0400658765 0.8967544198 -0.0970642972 0.0237856363
-0.1944787600 -0.0142564207 0.1535636092 0.0058585466 0.0112407399 -0.9999075057
-0.1902641324 0.0032014315 -0.4954116405 -0.9985199411 0.0312527994 0.0065918476
-0.1707386345 -0.0589245012 0.2955650531 -0.9433488695 -0.3310810819 0.0000022696
0.1683785032 -0.1147933033 -0.1112484903 -0.0036561464 0.7466139551 0.6652115815
-0.1317384577 0.2411757918 0.2623005018 0.0000216465 -0.0000174644 0.9999999996
-0.0400906176 -0.0694162257 0.4911607323 0.0000138225 -0.0000295424 0.9999999984
0.1918238629 -0.1627640359 -0.2576979314 0.0000353558 -0.0000357076 -0.9999999952
0.1909839538 0.2580868804 -0.1874298520 0.0000718203 0.9999999948 -0.0000689604
0.1802772272 -0.0250628310 -0.3650315567 0.9851228621 -0.1414884416 -0.0012545895
-0.1790083566 0.0582766666 -0.3945284730 -0.9360844597 0.3458361477 -0.0001263310
0.2089784367 -0.2524296669 0.1391121337 0.0000891623 -0.9999999955 -0.0000228104
0.1992338111 0.1030882474 0.1037470643 -0.0057188445 -0.7193716532 -0.6946018423
0.1692369112 0.1527641163 0.0148486911 0.0001588489 -0.9917409135 -0.1149851894
-0.2434495291 0.1002683913 0.1233362044 -0.0020321249 -0.6204605885 -0.7796701722
-0.2090235587 -0.2626226940 0.2601050647 0.0000206943 -0.7999962651 0.2000108602
-0.1912898230 0.1053511833 -0.1180088599 -0.0000997139 -0.7016980015 0.7105443266
0.1678235786 -0.2588873579 0.1929353342 0.0000290297 -0.9999999923 0.0001204154
-0.1179032924 0.2606463822 0.1330268491 0.0001304083 0.9999999669 -0.0002169285
-0.1836983605 0.1383272364 -0.2630488861 -0.0001231061 0.0001329617 -0.9999999829
-0.0388250614 0.1766160206 0.4034248606 -0.1992613437 0.9770264540 0.0007650415
-0.2118736337 -0.0130005986 0.2629112184 0.0000011517 -0.0000315106 0.9999999969
0.1172994299 0.1869523344 0.0851536816 -0.8172045812 0.0031297289 -0.5760100060
0.2668442510 -0.2059766509 0.0364449726 0.9999999964 0.0000850772 -0.0000011822
-0.2646989380 -0.1914537748 -0.0239395824 -0.9999999890 -0.0001362766 -0.0000372048
0.0165420292 0.0407701757 -0.1502633895 -0.0781089048 0.0184076027 0.9933404477
0.2415936260 -0.1889719951 -0.2549641137 0.0000683190 0.0000177275 -0.9999999961
0.1685188311 0.0662476709 0.4016977304 0.9252105135 0.3794541913 -0.0001497504
0.1391538775 -0.0345137635 -0.4991997381 0.0000302775 0.0000001337 -0.9999999985
-0.2708078398 -0.2121468145 -0.0629396187 -0.9999999988 -0.0000323107 -0.0000169040
-0.1634349783 -0.0958002664 0.4895256306 -0.5109084079 -0.3131837933 0.4053770748
0.1327636546 0.1101615220 -0.3368845504 0.7777163303 0.6286131073 -0.0009828677
0.2488608199 -0.2590237707 -0.1850882133 0.0001200023 -0.9999999708 0.0000149831
0.0824108350 0.1139762116 -0.1352592196 -0.5740011719 0.0068796492 0.8182355727
0.2299792528 0.0335208683 0.1540417765 -0.0035453312 -0.2180313106 -0.9758843279
0.1606880706 0.0859176530 -0.4034029408 0.8560206372 0.5169354990 0.0025216406
0.1298101621 -0.2698374564 0.1607291826 0.0000405640 -0.9999999947 0.0000903085
0.1391865634 -0.1213828397 -0.4673632815 0.7483950410 -0.6612184809 -0.0016036842
-0.0097763338 -0.2595273285 0.2655366973 -0.0000042958 -0.6000410622 0.4000406692
-0.1733763520 -0.0361903072 0.1516390137 -0.0076567009 0.2337723709 -0.9722476702
-0.1479903241 0.1101968468 0.4209746933 -0.8121742928 0.5804207583 -0.0006757270
0.2139659034 0.0458692533 -0.1506902361 0.0023074495 -0.2632102350 0.9613496736
-0.2387813199 -0.2655925849 -0.1253847928 -0.0001132424 -0.9999999923 -0.0000033873
0.2652148157 -0.1585022229 0.1986733839 0.9999999992 -0.0000072494 -0.0000138597
-0.0380683902 0.1459928161 -0.1595358219 0.1692043500 0.0004108413 0.9774229465
-0.0915972148 -0.1031970542 -0.1288269002 0.3916893028 0.1855657618 0.8175773197
-0.1074016179 0.1982709626 -0.1310730443 0.6291114143 -0.0045629076 0.7756804074
0.1708501181 0.2549399248 -0.0052274843 -0.0002631233 0.9999999486 0.0000375585
0.2180886201 -0.1060872591 -0.1225574602 0.0001248390 0.6112840228 0.7880135886
-0.0559153403 0.0369219135 0.1567208718 0.0092605633 -0.2368274117 -0.9714647659
-0.0397576235 -0.0801037236 0.5030930163 0.0000692549 -0.0000781126 0.9999999945
-0.0602164054 0.1785995562 -0.3267323312 -0.3758730544 0.9266640799 -0.0008570120
-0.1659687961 0.0988433344 0.1171460155 0.0030990597 -0.6423857335 -0.7616893914
-0.2657681784 0.0614497785 0.2487149036 -0.9000095739 -0.0000010170 0.1000147857
-0.1651760478 0.2677059789 -0.1402782758 0.0000518625 0.9999999936 0.0000427380
0.2351869697 0.0510802742 0.1550819152 -0.0011320546 -0.2854152221 -0.9540210290
-0.2638226914 -0.1640045592 0.0104394024 -0.7948411249 0.1997733208 -0.0075476199
0.2264657235 0.2182678227 -0.2603841745 -0.0000093882 -0.0000941252 -0.9999999944
-0.1896292627 -0.0084970602 0.3999272372 -0.9999886723 -0.0023038546 -0.0012989223
0.2517747484 -0.1469326679 -0.1158463661 0.9999999726 -0.0000731951 0.0000163243
0.1135407300 -0.1445531693 0.3503632306 0.5900111763 -0.8053876412 -0.0008907554
-0.1513961141 -0.1144252099 -0.2978884279 -0.7884785127 -0.6108283984 0.0010863327
-0.2416629991 -0.1293389031 -0.0979697032 -0.0082836191 0.8033190149 0.5930862869
0.1984102716 -0.1583633659 -0.2605082801 0.0000756626 -0.0000287659 -0.9999999952
-0.2581598653 -0.2002329924 -0.0176395615 -0.9999999941 -0.0000880824 -0.0000094449
0.1912871657 -0.2675020839 0.1824904208 0.0000064827 -0.9999999926 0.0001189887
0.2629035156 -0.1858065560 0.2381941053 0.9999999883 -0.0000981996 -0.0001080017
0.1175086877 0.2032608455 -0.1059934220 -0.6886019705 0.0053951187 0.7251194515
0.1882199488 -0.2639789740 0.0052349687 -0.0000862234 -0.9999999852 0.0000214442
0.0257070011 -0.1855017513 -0.4378379605 0.1260697225 -0.9920116681 0.0034768161
0.1479041992 -0.0028273732 -0.1562962930 0.0007017016 0.0017180612 0.9999980857
0.1360672678 0.2592021750 -0.1774778949 0.0000422127 0.9999999972 -0.0000619155
0.1584027018 -0.0947554727 0.3144048420 0.8635948825 -0.5041689264 -0.0015538503
0.1506363553 0.2679184683 -0.1584409506 0.0000428949 0.9999999975 -0.0000561308
0.2065652357 0.2569514535 0.1644274680 0.0000400337 0.9999999982 0.0000292970
0.2169763850 0.1280862335 -0.0910230520 -0.0000027258 -0.8174234966 0.5759431362
0.1522858728 -0.1036620546 0.4342467152 0.8216915604 -0.5655668721 0.0003472467
0.1206035105 0.2582262424 0.0982733122 -0.0803968404 0.8994999053 -0.0606096517
-0.1519884824 -0.0859536791 -0.3803821595 -0.8581205739 -0.5085485130 -0.0001940244
-0.0930130909 -0.2624142853 -0.2108654384 -0.0000590734 -0.9999999981 -0.0000179433
-0.2458327891 0.1074155679 -0.2705735704 0.0000126816 0.0000792376 -0.9999999965
-0.0013113692 0.1710222523 0.1573070639 0.0520354028 0.0005281566 -0.9965031109
0.2497994469 -0.0454876085 -0.2669361457 0.2000342270 -0.0000414043 -0.7999723190
-0.2236493141 -0.0713331450 0.1392060837 -0.0002262052 0.4306776480 -0.9024890708
0.1669127243 0.0604237231 0.3993177875 0.9252105135 0.3794541913 -0.0001497504
-0.2300079011 -0.2663945266 -0.0760205790 -0.0001056552 -0.9999999936 -0.0000303057
0.2528364124 0.1701183574 -0.0127648800 0.9999999986 0.0000181381 0.0000154044
-0.0374097520 -0.1845732201 -0.3934644639 -0.2209717798 -0.9737666718 0.0000079879
-0.1465151539 0.2733805922 0.1335159786 0.0001163335 0.9999999860 -0.0001201082
-0.1377180122 0.0643906884 -0.5038609510 0.0000378909 -0.0001770420 -0.9999999834
-0.2137702333 0.1253985294 -0.0955882207 -0.0034195961 -0.7972134795 0.6002611350
-0.1923022271 0.0910019000 -0.1296326710 -0.0010872513 -0.5829195900 0.8125261003
0.1728169450 -0.0214460604 0.5065828233 0.0001864554 -0.0000730019 0.9999999545
-0.0419339113 0.2630477854 -0.2360986558 -0.0000455094 0.9999999963 -0.0000725179
0.2261950871 0.2660551257 0.0146788921 0.0000895624 0.9999999959 0.0000057102
0.1964944362 0.0855123963 0.1433156712 0.0001058011 -0.4942216518 -0.8645349977
0.1486265716 -0.1056359313 -0.3942103453 0.8452377738 -0.5325920453 0.0006936797
0.1241144110 -0.2642714983 -0.1448812403 0.0000209137 -0.9999999982 -0.0000547184
0.2361794138 0.2563497663 -0.2482690203 -0.0000022648 0.9999999193 0.0002404237
0.0704421076 0.0032737832 0.5076697620 0.0000012319 0.0000719942 0.9999999974
0.0261146861 -0.0621007959 -0.1454807862 -0.0711135952 -0.0009682986 0.9909806616
0.2570174495 -0.0366134121 0.1536745007 0.0820156656 0.2068044090 -0.8754637421
-0.1817051849 -0.0473716578 0.4590293706 -0.9713319468 -0.2284344682 -0.0009408991
-0.2693367175 0.2446501409 -0.0379986454 -0.9999999997 0.0000060128 0.0000181927
0.0682339841 0.2625517239 0.2344766397 -0.0000396048 0.9999999982 0.0000280124
0.1730552149 0.0910324729 0.4489726365 0.9004701904 0.4294527588 -0.0008094408
0.2587747059 0.0658497565 0.1783575750 0.9999999962 0.0000096422 0.0000844191
-0.1572022153 -0.1300693351 -0.0885210735 -0.0062357825 0.8251727548 0.5647951323
0.2612258164 -0.2104140911 -0.0563207809 0.9999999967 0.0000812863 0.0000014485
-0.2631724770 0.2046451945 0.2347277969 -0.9999999948 0.0000900436 0.0000026388
-0.0039447224 -0.1829283042 0.3667069353 -0.0545838198 -0.9985068624 -0.0004377498
-0.0948925881 -0.0697290950 -0.1310119127 -0.0033667836 0.4791752469 0.8746115976
-0.0766520650 -0.1429190172 -0.1361942705 0.4875196792 0.0075644672 0.8729454421
-0.1761064193 0.0578825233 0.3874996752 -0.9523378706 0.3050447969 -0.0000858918
-0.0270405753 0.1881044156 -0.4331659448 -0.2248313310 0.9728965967 0.0011529155
0.2630356936 -0.1829272009 -0.0087374048 0.9999999950 0.0001001413 0.0000000427
0.0410703231 -0.1822367259 0.3714017136 0.2703735323 -0.9601485898 -0.0009467534
0.1093318723 0.2599807838 -0.1206379014 -0.2081633835 0.6976750427 0.2170305132
-0.1148574576 -0.1018666373 0.5074017370 -0.0001112324 -0.0001769099 0.9999999747
-0.0376542089 0.0517110697 -0.5012776156 -0.0000431651 -0.0000147829 -0.9999999974
0.1248126176 -0.0391303351 -0.5022699742 0.0001011348 0.0000002491 -0.9999999949
0.2677869702 -0.1839276336 -0.2169466220 0.9999999967 -0.0000451456 -0.0000121503
0.2594929868 -0.2555829773 -0.0871796068 0.0002857871 -0.9999999591 -0.0000141499
0.2150697893 0.2137290680 0.2633255770 0.0000544505 -0.0000274305 0.9999999977
-0.1658228169 0.0642804580 0.3029537023 -0.9549101670 0.2947284918 -0.0016178133
-0.2576095009 -0.1454506602 0.1639455159 -0.9999999997 -0.0000185561 0.0000133479
0.0595062261 -0.1707264256 -0.3305842958 0.2992064030 -0.9541858503 -0.0014244871
-0.2632371867 0.0869391663 -0.2112647974 -0.9999999987 0.0000007716 -0.0000323120
-0.1645636314 0.0754189023 -0.4567284885 -0.9273208076 0.3679623019 -0.0003024827
-0.1854291851 -0.0640991921 0.3414546398 -0.9516426362 -0.3072068538 0.0004313652
0.0479720304 -0.0800358819 0.5036273740 -0.0000006011 -0.0000230872 0.9999999991
-0.2622582748 0.1079745155 -0.1154959554 -0.5028759074 -0.3619004165 0.3450844230
-0.2493129467 0.0300980065 -0.1568403595 -0.0054584732 -0.2214716636 0.9734914326
-0.1750762029 -0.0634887275 0.3748157878 -0.9464741175 -0.3199494681 0.0000105930
-0.2676962182 -0.2124538228 0.1232464277 -0.9999999999 -0.0000049417 0.0000033564
-0.2605118877 -0.0832123604 -0.1390326234 0.0160938370 0.5426401443 0.8398110872
-0.2595696851 0.1669224448 -0.1939081845 -0.9999999979 0.0000384392 -0.0000308692
0.2331538249 0.0689525625 0.1371251200 -0.0047021666 -0.4233106470 -0.9059308745
0.1505272486 0.2670528232 -0.0892228514 -0.0005193102 0.9999996253 0.0003165141
-0.1964391082 0.2646855143 -0.2556500783 -0.0000233198 0.7999858422 -0.2000173382
0.1880734365 -0.1477583445 0.2659026212 0.0000927648 -0.0000776404 0.9999999927
0.0776615930 -0.2189550611 -0.1382400612 -0.5281548782 -0.0014365325 0.8490491135
-0.2018378081 0.1860739425 -0.2594638996 -0.0000780644 0.0000619914 -0.9999999946
-0.0563437759 0.0201990377 0.5029300434 -0.0000144248 -0.0000215918 0.9999999987
-0.1794807961 0.0481679357 -0.4428238986 -0.9556966733 0.2912373804 -0.0008695537
0.2437751177 0.2605705857 0.2359935501 -0.0000655247 0.9999999937 -0.0000048568
0.1791854751 -0.0420423570 -0.4183923027 0.9792536892 -0.2026149895 -0.0026306119
-0.2046170962 0.2422809734 -0.2663390802 -0.0000026141 -0.0000498349 -0.9999999966
0.1992497379 0.1390536579 -0.0792913418 0.0126519880 -0.8344499455 0.5509384862
-0.2111241097 -0.2644587601 -0.0871385412 -0.0000395333 -0.9999999985 -0.0000253726
0.0696569763 0.0591156491 -0.5021812485 0.0000557417 0.0000707964 -0.9999999952
-0.0196012238 -0.0806740014 -0.1515358946 0.0903190538 0.0000225554 0.9936822540
0.2479719472 -0.1491451064 -0.0336897941 -0.0018816079 0.9764783784 0.2146714257
0.0254711782 -0.1917506791 0.1453559568 -0.1865460689 0.0018341951 -0.9802714306
0.1742533856 0.0690120278 -0.2953666729 0.9339262662 0.3574404759 -0.0031332562
0.2436621986 0.2556142140 -0.2201523491 0.0005147454 0.9999997310 0.0004634748
-0.1541469490 -0.1662421983 -0.2621094239 0.0000480901 -0.0002721032 -0.9999999612
0.0816827765 -0.1642282209 -0.2882161130 0.4290441666 -0.9032030012 0.0004768297
-0.1128780536 0.1457109354 -0.4141183312 -0.6196001447 0.7837444843 -0.0003274112
-0.2506515954 -0.0288078881 0.2679688700 -0.2001164973 0.0000200729 0.8000007521
0.1492375478 0.1269711391 0.1118834117 -0.0185149701 -0.7260397940 -0.6871003965
0.2218964591 -0.2654412008 -0.1827660412 0.0000781053 -0.9999999924 -0.0000951040
-0.0827094515 0.1677754950 0.2631175721 -0.0007399417 0.0032594830 0.9999927769
-0.2611851396 0.2374104663 -0.2627173069 -0.5002714199 0.0005116877 -0.5002550086
0.1376615407 0.1139772272 0.4781032650 0.7657812213 0.6430809943 0.0016597791
-0.0881315504 -0.2530244309 0.1327706978 0.5043889861 -0.1889088594 -0.6207854523
-0.1667562813 0.0739474605 0.2927516621 -0.9037575078 0.4280437169 -0.0009713355
-0.0855777296 0.1764318000 0.1340195768 0.5381275139 0.0033585008 -0.8379478743
-0.1592739429 0.0087764582 0.1636938892 -0.0076750604 0.0101604628 -0.9999040187
0.1230919728 -0.2682996520 0.1431835606 0.0000442750 -0.9999999976 0.0000525309
-0.2159863060 -0.1968788973 0.2651845071 -0.0000772657 -0.0000346967 0.9999999888
-0.0612998217 -0.1152646059 -0.1543517162 0.2973954312 -0.0007746084 0.9547409213
-0.0218227061 0.0878549347 0.1658596668 0.2480795112 -0.0003530030 -0.9645193159
-0.1833190599 -0.0309781948 -0.4203140035 -0.9871469696 -0.1597828335 0.0019798778
-0.1765305712 0.0511484808 0.3146191912 -0.9543330078 0.2956201437 0.0007697319
-0.2519144211 -0.0692252403 -0.1511341406 -0.0055943271 0.4062715121 0.9133465818
0.2614126086 -0.0886342307 -0.2326844256 0.9999999967 0.0000003801 0.0000815354
-0.0380821555 -0.2684078115 -0.2035472045 0.0000896422 -0.9999999803 -0.0001246833
0.2556540409 0.1612824645 -0.2484621256 0.9999999908 0.0000727314 0.0001147009
-0.2544664000 -0.0745875948 0.1394669198 -0.3938765301 0.3079656581 -0.5133709443
0.1743994839 0.2687843525 -0.1469160447 0.0000389961 0.9999999978 -0.0000540061
0.0260008225 0.0662538906 0.1524087626 -0.1687349004 0.0021711256 -0.9856399025
0.1628650211 0.1485534292 0.2679562454 0.0000561699 0.0000648852 0.9999999953
-0.1528141077 -0.1136373054 -0.2754538307 -0.6537493251 -0.4602075893 -0.1935691938
0.1437737108 0.0449133366 -0.1499053079 -0.0004313150 -0.2474919365 0.9666481901
-0.1500479069 -0.1373259342 0.0821297477 0.0789089899 0.7529703470 -0.5551725150
-0.2613115816 -0.2377365653 -0.2510400385 -0.7999822614 -0.0007593299 -0.2006278104
-0.1831783515 -0.0154267763 -0.3055710518 -0.9933120631 -0.0790030310 -0.0011758747
0.0171497094 0.0392946554 0.1548810485 -0.1697932632 0.0138163525 -0.9853791678
-0.2588090681 -0.2329156308 0.2596476354 -0.7001363826 -0.0005152245 0.3003440824
-0.0586864148 0.2117678581 -0.2664426001 -0.0000288900 0.0001460807 -0.9999999856
0.1688083204 -0.0149768362 0.5070189326 0.0000800730 -0.0000003202 0.9999999960
-0.2101278824 -0.2638159836 -0.2158823383 -0.0000110086 -0.9999999989 0.0000289898
-0.1789849896 0.0346218647 -0.2822750539 -0.9851978752 0.1709129459 -0.0011478576
-0.2656732305 0.2419528136 -0.1009078888 -0.9999999997 0.0000097614 -0.0000225066
-0.2133437394 0.1614951299 0.0505345752 0.0124423278 -0.9658670537 -0.2465371561
0.2561481611 0.2263191765 0.2120079332 0.9999999905 -0.0001054261 -0.0000872344
-0.1020123511 -0.1547927053 -0.1235394217 0.6294633310 0.0029179693 0.7770230694
0.0286870401 -0.0050542258 -0.1525597059 -0.0318494129 0.0279320205 0.9959923612
0.0155404557 -0.2518119177 -0.2183143888 -0.0000676021 -0.9999999952 0.0000447774
0.1568213818 0.0827029877 0.1337497861 0.0005469544 -0.5420238206 -0.8357923605
-0.2703706467 -0.1598146672 0.2048314829 -0.9999999992 -0.0000158295 0.0000366648
-0.1816801594 0.0495040397 0.3266156331 -0.9547567164 0.2943113541 -0.0006916419
0.2112518855 -0.0544910741 -0.2718708903 0.0001793974 -0.0000626117 -0.9999999819
-0.0674584240 0.1517369242 0.1458197023 0.4551832638 -0.0121521902 -0.8861087893
-0.2691157492 0.1873226086 -0.0204655421 -0.9999999708 0.0001870809 -0.0000544308
0.1002459734 -0.1552610031 -0.3588584155 0.5594028990 -0.8288957567 -0.0000053611
0.2651453531 -0.1544275761 -0.1811514155 0.9999999995 0.0000074444 0.0000067248
-0.0561355848 -0.1823655885 -0.3919268019 -0.2379367383 -0.9712801221 -0.0007193007
0.1739129524 0.1978185774 -0.2649346715 0.0000619167 -0.0000056373 -0.9999999957
0.1542375703 0.2627569305 -0.0841742027 -0.0002368874 0.9999998549 0.0000784031
-0.2428853806 0.2537720923 -0.1190716440 -0.0001321825 0.9999999904 0.0000094196
-0.1373221215 -0.1552072643 0.0812308717 0.8380804744 0.0069863790 -0.5403432713
-0.0203248286 -0.0362235186 -0.1525935234 0.1126884465 0.0090519174 0.9872422007
-0.2578418295 0.1995058513 0.1810678282 -1.0000000000 0.0000006257 -0.0000054342
-0.1835418396 -0.0179492550 0.3064023713 -0.9947056186 -0.0588188735 0.0017582711
0.1707314053 -0.1822864673 0.2648542557 0.0000851036 -0.0000491998 0.9999999951
-0.2700200251 0.0662425963 0.2204337360 -0.9999999999 -0.0000030008 0.0000109249
-0.2193512260 0.1530616663 -0.0496247171 0.0001616441 -0.9401216559 0.3282574615
-0.2397220148 -0.1505822176 -0.0003994156 -0.0094635298 0.9997189064 0.0091296472
-0.1324218587 -0.1297699984 -0.3288754817 -0.7090071266 -0.7021076648 -0.0003782550
-0.0803049649 -0.1705564415 0.2643725276 -0.0813669157 -0.1828319063 0.7966097934
-0.1856984565 -0.0861389387 -0.1386916511 0.0016775731 0.4872714517 0.8685696505
0.2590443015 0.1165781160 0.1411525079 0.9999999951 0.0000618577 0.0000774547
-0.2648659024 0.0683667883 -0.1684984828 -0.9999999971 0.0000308455 0.0000426805
0.2649787355 -0.1958930296 -0.0850425293 0.9999999991 0.0000237865 0.0000001507
0.0990552278 -0.2635957330 -0.2396411983 0.0000182863 -0.9999999975 -0.0000677343
-0.1779677790 0.0116268439 0.4581917071 -0.9974052928 0.0170933403 -0.0014689303
-0.1660917544 -0.2619910778 -0.0955009101 -0.0001216729 -0.9999999914 0.0000249215
0.2616399585 -0.0474302052 0.1523311852 0.1835716516 0.2477944849 -0.7579375445
0.0532887220 0.1933624447 -0.2620710081 0.0001652960 0.0001301179 -0.9999999697
0.1232559303 -0.2662688198 0.1410711863 0.0000465581 -0.9999999978 0.0000416262
-0.1188445058 0.0925404879 -0.4918119854 0.0000173128 -0.0000989535 -0.9999999875
0.1478196422 0.0915066292 -0.1301628372 0.0042487237 -0.5975057618 0.8017498076
0.0953940662 -0.1970696572 -0.2578785933 0.0001011494 -0.0001592237 -0.9999999799
0.2094681240 0.2475037966 0.2083704961 -0.0000640877 0.9999999945 0.0000462362
0.1739863318 0.2332711647 -0.2624240602 0.0000292249 -0.0000987150 -0.9999999913
0.0390224483 -0.1827956657 0.4735806607 0.2080980681 -0.9750251024 0.0013302147
-0.0874852367 0.1090578709 0.4975765333 -0.0001501308 0.0001505448 0.9999999768
-0.1642685710 -0.2583811075 0.0451212791 0.0007891062 -0.9999995622 0.0004087816
-0.1663115567 0.0853857428 0.3044781104 -0.8605466158 0.5045214232 -0.0001421791
0.0810918962 0.1558913735 0.2868728428 0.4480580904 0.8929890962 -0.0016372697
-0.1152256072 -0.1493568954 0.4069057052 -0.6310359444 -0.7757534249 0.0005104511
0.1474777270 0.2635104902 0.2241816196 0.0000273738 0.9999999966 0.0000717065
-0.1806251905 0.0372133837 -0.4306303487 -0.9757535233 0.2090458156 -0.0011967697
-0.1725159378 -0.0603257164 0.4977501647 -0.2858064615 -0.0917026605 0.6995312562
-0.1680741971 0.0533810779 -0.1461256989 -0.0037900517 -0.2419385100 0.9679312437
-0.2433651577 -0.2605318648 -0.0319369664 -0.0001147534 -0.9999999933 -0.0000129336
0.1410439895 0.2595745831 0.2249702887 0.0000273738 0.9999999966 0.0000717065
-0.1822761894 -0.1390055926 0.2614176067 -0.0001898437 -0.0000156833 0.9999999768
-0.2473748169 0.1352246515 -0.2694342824 0.0000039520 0.0000457536 -0.9999999988
0.2544121477 -0.2237519699 -0.2276041674 0.9999999979 -0.0000231784 -0.0000170699
-0.2642640901 0.2009526462 0.0769918783 -0.9999999972 0.0000601247 -0.0000200671
-0.0177334208 0.0100259141 -0.4993853670 0.0000000008 0.0000503942 -0.9999999977
0.2590609345 0.2477964696 -0.2661407256 0.1012505879 0.0016089323 -0.9000065671
-0.0435500945 0.1066213550 0.1491225586 0.2846717668 0.0025257053 -0.9559784333
0.1972982937 0.1577178362 -0.2597908362 0.0001058202 0.0000567618 -0.9999999928
0.2294663642 0.2593971140 0.1610430268 0.0001021537 0.9999999917 -0.0000135423
0.1160464659 -0.2707904981 0.1258653941 -0.0000461540 -0.9999998661 -0.0001270824
-0.2641789400 -0.0469105104 -0.2028933626 -0.9999999994 -0.0000062873 -0.0000262089
-0.1912568675 -0.1053374306 0.2572207159 -0.0002742292 -0.0001749244 0.9999999041
-0.1208388212 0.2148360374 -0.2565428307 -0.0000842208 0.0001125085 -0.9999999896
0.1526384315 -0.2083518976 -0.0235852927 -0.9869078263 -0.0084736046 0.1610625356
0.1022281445 0.2393455994 0.2661580338 0.0000900188 0.0000409306 0.9999999950
-0.0587969776 -0.0604676900 0.4999471889 -0.0000066600 0.0000072973 0.9999999995
-0.0750123074 0.2574494532 -0.2356878393 -0.0000232382 0.9999999975 -0.0000652396
-0.2618408200 -0.2441334670 -0.2248652543 -0.9999999248 -0.0003475896 -0.0000100650
-0.1717077000 0.0693958080 -0.4717088708 -0.9172289073 0.3933951802 -0.0005955438
-0.1770381296 -0.0207785190 0.4237474728 -0.9858948542 -0.1673293045 0.0013223805
-0.1215249316 0.2603859287 -0.2217103005 -0.0000141159 0.9999999993 -0.0000332833
-0.1593515401 0.0922808978 0.4713401751 -0.8686703632 0.4899381690 -0.0021028821
-0.2246257272 -0.2672625389 0.0283767812 -0.0000784379 -0.9999999959 0.0000005435
-0.0452107715 0.1847734029 0.1501844214 0.2934810325 -0.0043202838 -0.9559537371
-0.1844692071 -0.0132881156 0.3084221387 -0.9973288501 -0.0245586449 0.0002245754
-0.2614235747 -0.2217510283 -0.0172282815 -0.9999999999 -0.0000074577 -0.0000064391
0.0425177643 -0.1815960969 -0.2992906410 0.2798262402 -0.9586771630 0.0004107657
0.2005335410 -0.1487010480 -0.2643891399 0.0000955077 -0.0000497539 -0.9999999937
-0.0187181455 0.1138126721 -0.1568538916 0.0763321389 0.0008340413 0.9970820974
0.2435828000 -0.0305274515 0.2550832417 0.0000667395 -0.0000170538 0.9999999976
0.1727831808 0.0026461208 0.4634189609 0.9993395174 0.0322490859 0.0167488904
0.1038659877 -0.0056877412 -0.1651098469 0.0004105849 0.0040062868 0.9999917216
-0.2651901259 -0.2245492710 -0.1533304217 -0.9999999993 -0.0000214630 -0.0000275551
-0.1058653428 -0.2031905142 -0.1145157430 0.6547231002 -0.0011460179 0.7528602902
-0.0660199138 -0.0576404937 -0.1390887898 0.1330737075 0.3091528585 0.8931020130
-0.2378251481 -0.1998084552 -0.2651421197 0.0000821444 -0.0000543517 -0.9999999951
0.2589571087 -0.2234689589 -0.2307331456 0.9999999906 -0.0000873012 0.0000162617
0.1661947298 -0.0371101661 -0.5002973377 0.0000577899 0.0000241944 -0.9999999955
0.1824381246 -0.0417444830 -0.3871557235 0.9796883653 -0.2005060199 -0.0010284527
0.2102698624 -0.1599401376 -0.0548867695 0.0038600908 0.9600181481 0.2642342800
0.1071604889 0.2361969174 -0.1161385299 -0.6899582452 -0.0063480615 0.7238064478
-0.0449707551 -0.1911034423 0.3650505631 -0.2161317374 -0.9748168800 -0.0001607161
-0.1055986272 -0.1181938228 -0.4933535680 -0.0000129636 -0.0000301104 -0.9999999874
-0.0439295945 -0.1814775856 -0.3722870077 -0.2366926372 -0.9715791930 0.0026507729
0.0345092215 0.0995370174 0.1565123722 -0.1634415946 0.0024008796 -0.9865500904
0.2225733301 -0.1008649656 -0.1177573565 0.0001248390 0.6112840228 0.7880135886
0.2600716632 0.0517783488 -0.2084355125 0.9999999907 0.0000293670 0.0000559415
-0.2382125218 -0.2613891083 0.0894162591 -0.0000996147 -0.9999999950 0.0000071116
-0.0952924854 -0.1495511175 -0.3962611858 -0.5187820799 -0.8549020435 0.0000997882
0.2395398724 0.2679759500 -0.1155208202 0.0002046809 0.9999999732 -0.0000194171
-0.1114632728 0.1461144019 -0.3865933241 -0.5723121962 0.8168946969 -0.0003114549
0.1791315886 0.2294168071 0.2630532281 0.0000290047 0.0000009132 0.9999999947
-0.1789250163 0.0037126162 0.1570052716 -0.0023567560 0.0113734067 -0.9999001364
0.0423202603 0.1804836408 -0.4727553357 0.2065786494 0.9761541415 -0.0052009213
-0.1615514020 0.2410211974 -0.0163175178 0.9962342692 0.0049753772 0.0403051290
-0.1255423120 -0.2195318976 -0.2721819587 0.0000161897 -0.0001066079 -0.9999999923
0.2692679687 -0.1999877180 0.1003819016 0.9999999957 0.0000745108 0.0000424250
-0.1673444452 0.0690993574 0.4525632092 -0.9480377131 0.3154720348 -0.0006772657
0.2405645885 -0.1465410712 -0.2616568013 0.0000421220 0.0000001465 -0.9999999990
-0.0651384690 0.2199461559 -0.1295729828 0.4565546888 0.0059585515 0.8896753952
0.2679310469 0.1088298320 0.1650910556 0.9999999952 0.0000604794 0.0000775633
0.1312340216 0.2606163696 0.1065763442 -0.7975195900 -0.0055949394 -0.6032654061
0.0889576211 0.1620576389 -0.2794736211 0.4781051973 0.8763339205 -0.0022312155
0.1395822637 -0.2141267142 -0.2639750367 0.0000090675 -0.0000915879 -0.9999999958
0.0033107491 0.1196203648 0.1616726350 0.0531414613 -0.0002920857 -0.9960664647
-0.1305067271 0.2102616239 -0.2527448308 -0.0000967260 0.0001708775 -0.9999999748
-0.1359209212 -0.0416710364 0.1497734473 0.0021674701 0.2238616684 -0.9746175238
0.1179587142 0.1462414863 -0.1051491487 -0.6900725605 -0.0044828406 0.7237255352
-0.1553536532 -0.1062220591 0.3613768912 -0.8249999371 -0.5651326152 -0.0002396748
-0.0454834451 0.1353612215 0.1508595754 0.3099473654 -0.0041370843 -0.9507430923
0.1338050143 0.1213351860 0.4499960493 0.7298057897 0.6802058812 -0.0010876205
-0.0198743850 0.1605905446 -0.1503552348 0.0679801394 0.0048362108 0.9976749529
0.1672776542 0.0551419354 0.2643434046 0.7507520609 0.2757246494 0.1803725841
-0.0533300659 0.2659870088 -0.1507941786 0.0800563533 0.6997910048 0.2901757170
0.1842231019 -0.0158161415 0.4768136932 0.9958592632 -0.0516944787 -0.0050495944
0.0295182072 0.1194059079 0.1663796855 -0.1605852957 -0.0008257909 -0.9870175422
0.2189063852 -0.0254878132 0.1489303549 -0.0044635062 0.1266488993 -0.9856968794
-0.2466005487 -0.1471342454 0.0550345159 0.0046725821 0.9400117007 -0.3307034024
-0.2644303203 0.1603780697 -0.1932089452 -0.9999999994 0.0000177786 -0.0000304172
-0.1242399699 0.2139945000 -0.0936322796 0.7742067038 -0.0003567941 0.6277287977
-0.2233575189 -0.1658147700 -0.2614876903 0.0000407421 -0.0000194792 -0.9999999988
-0.2676289346 -0.2601426269 0.1409657602 -0.6999997349 -0.3000058417 -0.0000408518
0.0819415500 -0.1622907657 0.3950456206 0.4460855341 -0.8949901728 -0.0004707867
0.2241181558 0.1615739759 0.2693238135 0.0001196296 0.0000053421 0.9999999926
0.1847499904 -0.0404816575 0.4091218594 0.9739429093 -0.2198713786 0.0042540722
-0.1539005066 0.1943019925 0.0142505997 0.9999863719 -0.0006690509 0.0051776766
0.0694785660 0.2412337983 -0.2666206019 0.0000572235 0.0000825366 -0.9999999947
-0.0527949379 0.2603724141 0.1680851561 -0.0001608201 0.9999979135 -0.0008777889
0.1607678886 -0.0894693079 0.4414598707 0.8600751829 -0.5079414252 -0.0004155608
0.1510593794 0.1291985921 -0.3837640915 0.7652825299 0.6423011347 -0.0000058642
-0.0918292661 0.1609755695 0.4368425768 -0.5136681832 0.8579798363 -0.0011125782
0.0670671257 0.2473439250 -0.1406084394 -0.3853045634 0.0057187173 0.9214671587
0.2328394764 0.2760629792 0.0190202937 0.0000884518 0.9999999960 0.0000071090
0.1326883965 -0.2134255642 0.2563462567 -0.0000918844 0.0000178432 0.9999999949
0.2702382374 -0.1682482867 0.0164261548 0.9999999983 0.0000262996 -0.0000082692
