2.000327e-01 2.560948e-01 1.978171e-01 1.199822e-04 1.602799e-04 1.324845e-03
-7.648891e-03 3.869857e-01 1.792089e-01 -4.926056e-05 6.886162e-04 1.429901e-03
3.699130e-01 2.829785e-01 1.097975e-01 1.375648e-03 1.029798e-03 9.895818e-04
-2.153843e-01 -4.484704e-02 1.831047e-01 4.103476e-04 8.927895e-05 8.697914e-04
2.122535e-01 4.421495e-02 -1.815630e-01 -4.103449e-04 -8.926603e-05 -8.697706e-04
2.972964e-01 3.488591e-01 1.209905e-01 8.924493e-04 1.192164e-03 1.184595e-03
-1.200238e-01 -4.459956e-01 -1.161166e-01 -3.297578e-04 -1.515904e-03 -1.234015e-03
4.010828e-01 -1.877476e-02 -1.715513e-01 9.585485e-04 -6.855795e-05 -1.405958e-03
-3.838293e-01 2.486372e-01 -1.224556e-01 -1.192164e-03 8.924493e-04 -1.184582e-03
-2.312284e-01 -2.253103e-01 -1.981296e-01 -1.415713e-04 -1.415713e-04 -1.324838e-03
2.101948e-01 1.704860e-01 1.973420e-01 -1.450644e-04 -1.085939e-04 1.199084e-03
-9.308776e-02 4.695126e-01 8.747153e-02 -3.769982e-04 1.733072e-03 1.021380e-03
1.864774e-02 2.735376e-01 1.979061e-01 -1.292763e-05 -1.807485e-04 1.199094e-03
3.012089e-01 -3.617228e-01 1.022116e-01 1.062894e-03 -1.419837e-03 1.021367e-03
-4.497148e-01 1.290720e-01 1.077823e-01 -1.679167e-03 3.652726e-04 9.895994e-04
-3.801805e-01 2.889845e-01 -8.927359e-02 -1.419865e-03 1.062902e-03 -1.021390e-03
8.357694e-02 -1.780584e-01 -1.710463e-01 -2.302833e-04 4.217202e-04 -7.029767e-04
-6.223782e-02 -1.111199e-01 -1.004151e-01 2.385228e-04 4.368302e-04 -2.866253e-04
4.871988e-02 3.990332e-01 1.714885e-01 6.855795e-05 9.585485e-04 1.405953e-03
2.540402e-01 4.284167e-01 -1.291370e-02 1.019123e-03 1.866400e-03 -1.589644e-04
-2.399433e-01 -3.420377e-01 1.604731e-01 -6.114565e-04 -8.168188e-04 1.492741e-03
-3.500802e-01 1.918755e-01 1.730456e-01 -8.434489e-04 4.605582e-04 1.405941e-03
-1.020539e-01 3.977821e-01 1.654102e-01 -2.168883e-04 9.970076e-04 1.492751e-03
-1.459524e-01 1.972193e-01 1.920488e-01 1.924742e-04 -2.571124e-04 1.038618e-03
1.059704e-01 3.506976e-01 -1.881847e-01 1.513424e-04 4.057588e-04 -1.400438e-03
3.329341e-01 5.872626e-02 1.958647e-01 2.139977e-04 4.655106e-05 1.449185e-03
-4.468725e-01 -1.361986e-01 -1.087896e-01 -1.661809e-03 -6.198244e-04 -1.021379e-03
-2.520406e-01 1.631942e-01 -1.994410e-01 000000 000000 -1.212641e-03
1.344158e-01 2.786641e-01 1.994410e-01 000000 000000 1.339814e-03
-2.520477e-01 8.811247e-02 -1.968144e-01 1.521628e-04 -5.675447e-05 -1.074772e-03
-2.930890e-01 3.349159e-01 1.373423e-01 -8.711754e-04 8.711754e-04 1.324395e-03
-2.754573e-01 -3.230837e-01 1.562723e-01 -7.383159e-04 -9.862850e-04 1.324382e-03
9.702408e-02 -2.893751e-02 -1.704500e-02 -3.984800e-04 1.486401e-04 -3.178413e-05
-1.255554e-01 2.657902e-02 1.021180e-01 4.863355e-04 -1.057893e-04 2.866121e-04
-2.586138e-01 4.252383e-01 2.090805e-02 -1.019123e-03 1.866400e-03 1.589814e-04
5.909133e-02 -9.550091e-02 -6.796958e-02 -2.071646e-04 3.794214e-04 -1.692246e-04
-3.866012e-01 -3.087679e-01 3.846115e-02 -1.656897e-03 -1.240334e-03 4.712058e-04
4.225215e-02 4.833834e-01 -7.094979e-02 1.390858e-04 1.944808e-03 -7.633135e-04
2.106943e-01 2.445579e-01 -1.982473e-01 1.312434e-04 1.753217e-04 -1.449184e-03
-4.749831e-01 -1.330704e-01 -4.774537e-02 -1.995387e-03 -4.340775e-04 -4.648888e-04
4.250499e-01 -2.290755e-01 -7.688758e-02 1.673217e-03 -9.136503e-04 -7.463122e-04
2.333261e-01 -3.020261e-01 1.815912e-01 4.137300e-04 -5.526712e-04 1.429893e-03
-2.250318e-02 9.887141e-02 2.207596e-02 9.242125e-05 -4.248606e-04 3.249439e-05
4.751262e-01 1.072339e-01 6.610576e-02 1.905246e-03 4.144544e-04 7.632933e-04
-2.724461e-01 3.671056e-01 1.213489e-01 -9.296902e-04 1.241920e-03 1.234032e-03
-2.363508e-01 3.648838e-01 -1.469445e-01 -7.764181e-04 1.037166e-03 -1.392747e-03
-1.363911e-01 1.373771e-01 -1.691674e-01 3.397673e-04 -3.397673e-04 -7.029813e-04
-3.028885e-01 3.638344e-01 -9.752839e-02 -1.029818e-03 1.375675e-03 -9.896002e-04
4.860093e-01 1.060824e-02 7.002585e-02 1.901587e-03 1.360135e-04 7.462906e-04
-1.882381e-01 3.109574e-01 -1.889532e-01 -2.075445e-04 3.800938e-04 -1.400440e-03
4.534168e-01 -4.714998e-02 1.232708e-01 1.485417e-03 -1.062423e-04 1.184570e-03
1.862699e-01 3.792351e-01 -1.573916e-01 4.889985e-04 8.955219e-04 -1.492746e-03
-8.529350e-02 -4.763376e-01 7.499580e-02 -4.144544e-04 -1.905246e-03 7.632725e-04
1.004453e-01 7.955654e-03 1.353440e-02 -4.336988e-04 -3.103065e-05 3.249998e-05
3.369856e-01 3.437112e-01 8.076052e-02 1.348058e-03 1.348058e-03 7.463106e-04
2.112262e-01 -1.943657e-03 1.786783e-01 -4.188791e-04 2.996070e-05 8.697959e-04
1.178141e-01 -3.309080e-01 1.926385e-01 1.513424e-04 -4.057588e-04 1.400438e-03
-4.553523e-01 -1.924046e-01 -4.130453e-02 -1.913307e-03 -7.136270e-04 -4.648955e-04
-1.440899e-01 8.043870e-03 1.250942e-01 5.101663e-04 -3.648135e-05 4.068364e-04
-3.993597e-01 -1.454034e-01 -1.550854e-01 -1.154349e-03 -4.305504e-04 -1.324394e-03
4.302113e-01 -2.209854e-01 7.522037e-02 1.711299e-03 -9.344388e-04 7.632835e-04
-1.568602e-01 -8.912195e-02 1.601457e-01 3.696472e-04 2.018431e-04 6.161715e-04
-3.627179e-01 -9.799914e-02 1.846580e-01 -6.745780e-04 -1.467301e-04 1.429892e-03
1.284414e-01 -6.049197e-02 -1.218565e-01 -3.943655e-04 2.153358e-04 -3.574128e-04
1.484723e-01 -2.351101e-01 -1.984101e-01 -7.783981e-05 1.425537e-04 -1.074775e-03
2.786375e-02 -3.134860e-01 -1.993607e-01 1.428211e-05 -1.997022e-04 -1.324827e-03
1.819228e-01 5.452218e-02 1.663805e-01 -3.946018e-04 -1.471769e-04 6.161555e-04
4.379263e-01 -1.277683e-01 1.239596e-01 1.455176e-03 -3.165534e-04 1.184581e-03
1.381183e-01 1.416801e-01 -1.720819e-01 -3.397673e-04 -3.397673e-04 -7.029813e-04
9.146827e-02 1.442801e-01 -1.522849e-01 -2.437197e-04 -4.463382e-04 -5.466824e-04
-1.143003e-01 -3.870461e-02 8.871898e-02 4.146142e-04 1.546390e-04 2.548369e-04
-1.015510e-01 -3.013739e-02 4.609050e-02 3.982905e-04 1.485539e-04 9.678234e-05
-1.336152e-01 -3.818702e-01 -1.694415e-01 -3.358270e-04 -9.004051e-04 -1.405957e-03
-1.556845e-01 -3.145659e-01 1.927982e-01 -2.247559e-04 -4.116089e-04 1.516575e-03
-2.223252e-01 -2.878500e-01 1.887873e-01 -2.810461e-04 -3.754330e-04 1.516561e-03
-3.840076e-01 -2.486516e-01 1.222653e-01 -1.192164e-03 -8.924493e-04 1.184582e-03
1.243275e-01 -2.525918e-01 1.989802e-01 -8.684438e-05 1.590458e-04 1.199095e-03
6.759523e-02 -3.448806e-01 1.925917e-01 9.205210e-05 -4.231683e-04 1.400447e-03
2.388734e-01 -2.165439e-01 -1.982494e-01 1.415713e-04 -1.415713e-04 -1.324838e-03
-3.673859e-01 -2.275991e-01 1.490103e-01 -1.137118e-03 -6.209088e-04 1.392757e-03
-2.911871e-01 -3.851892e-01 7.683589e-02 -1.142494e-03 -1.526187e-03 7.463137e-04
4.174787e-02 3.778102e-01 -1.824534e-01 5.280735e-05 7.383302e-04 -1.533111e-03
1.472868e-01 -1.991779e-01 -1.927810e-01 -1.924742e-04 2.571124e-04 -1.038623e-03
-2.777927e-01 2.250360e-01 -1.907747e-01 -3.754330e-04 2.810461e-04 -1.516552e-03
6.648033e-02 4.498365e-01 -1.257064e-01 3.165534e-04 1.455164e-03 -1.184555e-03
3.559903e-01 2.643730e-01 -1.379458e-01 1.037166e-03 7.764181e-04 -1.392747e-03
2.800839e-01 3.296326e-01 1.488161e-01 7.383159e-04 9.862850e-04 1.324382e-03
-3.316439e-01 -6.217237e-05 -1.969233e-01 -2.184443e-04 -1.562321e-05 -1.449170e-03
-4.687622e-01 5.770417e-02 9.942857e-02 -1.714017e-03 1.226008e-04 9.896088e-04
1.103320e-01 -2.718773e-01 -1.994410e-01 000000 000000 -1.212625e-03
3.916812e-04 -2.800860e-01 1.986964e-01 -1.158876e-05 1.620064e-04 1.074758e-03
-3.549964e-01 1.050796e-01 1.870350e-01 -4.394306e-04 1.638841e-04 1.516551e-03
-4.924219e-01 5.087287e-02 -3.728193e-02 -2.064440e-03 1.476505e-04 -4.711673e-04
-1.973346e-01 -4.502960e-01 5.454623e-02 -7.136270e-04 -1.913307e-03 4.648955e-04
4.536703e-01 1.429672e-01 9.362206e-02 1.610055e-03 6.005266e-04 9.895897e-04
-1.976783e-01 -4.271776e-01 -1.029403e-01 -8.235461e-04 -1.508232e-03 -9.896112e-04
-7.312789e-02 -3.808134e-01 -1.786733e-01 -1.467491e-04 -6.746021e-04 -1.429892e-03
3.747357e-01 -2.167573e-01 1.478432e-01 1.081317e-03 -5.904514e-04 1.324418e-03
2.121329e-02 4.817749e-01 7.888278e-02 1.360135e-04 1.901587e-03 7.463034e-04
-3.061786e-01 3.919085e-01 -2.008252e-02 -1.268680e-03 1.694762e-03 -1.582664e-04
1.806429e-03 -1.917457e-01 1.676655e-01 -3.004830e-05 4.200869e-04 6.161657e-04
-3.889964e-01 2.169466e-01 1.361154e-01 -1.137118e-03 6.209088e-04 1.392724e-03
9.902367e-02 4.993845e-02 6.466268e-02 -3.794146e-04 -2.071608e-04 1.692330e-04
4.575326e-01 -1.651334e-01 6.781532e-02 1.826874e-03 -6.813892e-04 7.632860e-04
-3.330699e-01 9.441369e-02 -1.943977e-01 -4.582781e-04 9.970576e-05 -1.516560e-03
-4.645215e-01 1.807858e-01 -4.208856e-03 -1.992430e-03 7.431408e-04 -1.589564e-04
-2.287882e-01 1.144810e-01 1.951098e-01 1.425515e-04 -7.783981e-05 1.074763e-03
-4.856924e-01 1.406061e-03 -7.251030e-02 -1.901567e-03 1.360110e-04 -7.462960e-04
-2.286996e-01 3.850262e-01 1.334435e-01 -7.137000e-04 1.307054e-03 1.184583e-03
-3.621899e-01 -3.215883e-01 -7.519507e-02 -1.378698e-03 -1.378684e-03 -7.632586e-04
-4.670105e-01 4.244350e-02 -1.043527e-01 -1.714050e-03 1.226032e-04 -9.895971e-04
-1.648907e-01 -4.079764e-01 1.412398e-01 -4.527631e-04 -1.213892e-03 1.392741e-03
-3.540858e-01 -2.106797e-02 1.915653e-01 -4.319612e-04 -3.089402e-05 1.400436e-03
-2.490284e-01 3.868780e-01 -1.190926e-01 -9.296902e-04 1.241920e-03 -1.234018e-03
-9.805289e-02 2.473004e-01 1.966674e-01 6.332825e-05 -1.697835e-04 1.199090e-03
2.426952e-01 -3.571583e-01 1.491608e-01 7.383159e-04 -9.862850e-04 1.324397e-03
-3.539994e-01 3.222275e-01 -8.817527e-02 -1.254159e-03 1.254146e-03 -1.021392e-03
-2.439380e-01 -4.349198e-01 -1.323619e-03 -1.019138e-03 -1.866400e-03 -1.589336e-04
-1.115712e-01 5.982567e-03 -6.688468e-02 4.311917e-04 -3.084512e-05 -1.692241e-04
-3.841119e-01 2.549560e-01 1.174106e-01 -1.241920e-03 9.297019e-04 1.234023e-03
-3.081005e-01 9.667081e-03 1.994410e-01 000000 000000 1.339804e-03
3.456331e-01 -3.487863e-01 5.383205e-02 1.443938e-03 -1.443953e-03 4.649067e-04
1.765831e-01 4.343129e-01 -1.047167e-01 6.198244e-04 1.661809e-03 -1.021405e-03
-1.304072e-01 -2.032917e-01 1.906802e-01 1.367169e-04 2.503724e-04 9.224951e-04
4.102518e-01 2.821143e-01 -1.655950e-02 1.702363e-03 1.274373e-03 -1.589827e-04
2.705952e-01 -3.716914e-01 1.181283e-01 9.296902e-04 -1.241920e-03 1.234032e-03
-4.708857e-01 9.071248e-02 8.566176e-02 -1.862846e-03 4.052419e-04 7.463140e-04
1.357369e-01 1.819076e-01 -1.863652e-01 -1.709545e-04 -2.283682e-04 -9.225059e-04
1.015892e-01 -4.867523e-01 -2.010933e-02 4.500040e-04 -2.068635e-03 -1.582492e-04
1.529018e-01 -2.126224e-02 1.369928e-01 -4.438374e-04 3.173825e-05 4.783280e-04
-1.241404e-01 2.529477e-01 -1.990138e-01 8.684661e-05 -1.590458e-04 -1.199104e-03
-8.105698e-02 2.849510e-01 -1.994410e-01 1.434050e-08 4.210750e-09 -1.212630e-03
-9.232973e-02 -3.240623e-01 1.960953e-01 -4.255894e-05 -1.956365e-04 1.324847e-03
-4.611852e-01 1.067599e-01 -9.655507e-02 -1.733103e-03 3.770126e-04 -1.021388e-03
-4.087659e-01 -2.111551e-02 1.661990e-01 -9.585485e-04 -6.855795e-05 1.405958e-03
4.532478e-01 4.243732e-02 -1.239054e-01 1.485417e-03 1.062423e-04 -1.184570e-03
2.194908e-01 4.448943e-03 -1.827447e-01 -4.188791e-04 -2.996070e-05 -8.697959e-04
4.051822e-01 -1.696327e-01 1.421337e-01 1.154339e-03 -4.305403e-04 1.324390e-03
2.072462e-01 7.898058e-02 1.839668e-01 -3.934709e-04 -1.467555e-04 8.697880e-04
2.617284e-01 3.276873e-01 -1.594019e-01 6.114565e-04 8.168188e-04 -1.492753e-03
9.403198e-02 -3.817059e-01 1.761068e-01 1.573456e-04 -7.232980e-04 1.533095e-03
1.741386e-01 3.398527e-01 1.815306e-01 3.547490e-04 6.496738e-04 1.533126e-03
2.339663e-01 -3.942289e-01 -1.201163e-01 7.137000e-04 -1.307042e-03 -1.184601e-03
-4.155276e-01 1.125224e-01 -1.504746e-01 -1.265972e-03 2.753969e-04 -1.392704e-03
-2.204678e-02 4.769420e-01 8.967814e-02 -1.265455e-04 1.769112e-03 1.021397e-03
4.578011e-01 1.231641e-01 -9.624198e-02 1.679167e-03 3.652726e-04 -9.895923e-04
4.184302e-01 -5.964562e-02 1.577312e-01 9.585485e-04 -6.855795e-05 1.405953e-03
-2.932149e-01 -3.774721e-01 -8.863624e-02 -1.062902e-03 -1.419865e-03 -1.021390e-03
-3.295224e-01 -3.649035e-01 5.381108e-02 -1.463507e-03 -1.463507e-03 4.712049e-04
-3.936788e-01 -2.755063e-01 -8.348031e-02 -1.526159e-03 -1.142473e-03 -7.462863e-04
-4.380274e-01 4.031452e-02 -1.413230e-01 -1.292292e-03 9.242927e-05 -1.392750e-03
-1.316551e-01 -4.182157e-01 -1.431199e-01 -4.305403e-04 -1.154339e-03 -1.324411e-03
4.192354e-01 2.339497e-01 8.395659e-02 1.673261e-03 9.136667e-04 7.463336e-04
4.561285e-01 9.007455e-02 -1.112938e-01 1.679167e-03 3.652726e-04 -9.895923e-04
6.570088e-02 -3.345712e-01 -1.953989e-01 4.655106e-05 -2.139977e-04 -1.449163e-03
-5.378076e-03 -2.651137e-01 -1.964932e-01 1.158653e-05 1.620064e-04 -1.074758e-03
2.494028e-01 4.055495e-01 9.285788e-02 8.235302e-04 1.508203e-03 9.895765e-04
4.614361e-02 -1.330219e-01 1.206487e-01 -1.570264e-04 4.209962e-04 3.574168e-04
1.555041e-01 7.929573e-02 -1.560220e-01 -4.463382e-04 -2.437197e-04 -5.466799e-04
1.495222e-01 2.369436e-01 -1.987294e-01 -8.684661e-05 -1.590458e-04 -1.199103e-03
1.779997e-01 -2.276928e-01 1.994410e-01 000000 000000 1.212628e-03
2.765041e-01 -7.861352e-02 -1.994410e-01 000000 000000 -1.339796e-03
-6.986098e-02 3.375251e-01 1.946654e-01 -9.205733e-05 4.231923e-04 1.400447e-03
4.159270e-01 1.166207e-01 1.493007e-01 1.265972e-03 2.753969e-04 1.392742e-03
-7.710672e-02 -3.452046e-01 -1.918686e-01 -9.205210e-05 -4.231683e-04 -1.400447e-03
2.756840e-02 -9.753623e-02 1.902537e-02 -9.243616e-05 4.248606e-04 3.249626e-05
7.202561e-02 -1.033047e-01 9.782406e-02 -2.651916e-04 3.542575e-04 2.548387e-04
-3.084739e-01 -2.928946e-01 -1.548634e-01 -8.711754e-04 -8.711754e-04 -1.324395e-03
4.845927e-01 -1.030459e-01 3.453296e-02 2.022417e-03 -4.399498e-04 4.712020e-04
2.349706e-01 -9.981337e-02 -1.950145e-01 -1.521798e-04 5.676084e-05 -1.074772e-03
-1.487772e-01 -4.761001e-01 -8.721530e-03 -7.398172e-04 -1.983532e-03 -1.582574e-04
1.546928e-01 -4.615076e-01 6.762152e-02 6.662379e-04 -1.786248e-03 7.463242e-04
6.722061e-02 4.943048e-01 -1.184074e-02 1.517104e-04 2.121098e-03 -1.589477e-04
-9.518383e-02 4.875233e-01 -2.824577e-02 -4.500040e-04 2.068635e-03 -1.582492e-04
2.457432e-01 -3.984348e-01 1.067469e-01 8.499867e-04 -1.556663e-03 1.021401e-03
4.092911e-01 1.973763e-01 -1.255421e-01 1.361589e-03 7.434857e-04 -1.234040e-03
1.910231e-01 1.236277e-01 1.863778e-01 -2.283682e-04 -1.709545e-04 9.224929e-04
2.487926e-01 -4.176882e-01 6.925482e-02 9.344388e-04 -1.711313e-03 7.632703e-04
-4.781488e-01 -5.816915e-02 8.138659e-02 -1.944808e-03 -1.390858e-04 7.633135e-04
-2.139159e-01 4.468371e-01 3.771241e-02 -9.786489e-04 1.792264e-03 4.648914e-04
-2.056837e-01 -3.339252e-01 -1.767432e-01 -3.547490e-04 -6.496738e-04 -1.533127e-03
-4.349315e-01 1.996723e-01 -8.946310e-02 -1.508232e-03 8.235461e-04 -9.895953e-04
-1.897432e-01 4.197623e-01 -1.182684e-01 -5.204260e-04 1.395312e-03 -1.184606e-03
7.458950e-02 1.087725e-01 -1.080931e-01 -2.982700e-04 -3.984398e-04 -2.866263e-04
4.438378e-01 2.261333e-01 1.076623e-02 1.858053e-03 1.014577e-03 1.582465e-04
3.322493e-01 -2.936401e-02 -1.965162e-01 2.184443e-04 -1.562321e-05 -1.449162e-03
7.420043e-02 1.928914e-01 1.766666e-01 -1.293368e-04 -3.467724e-04 7.665575e-04
1.309529e-01 -4.645420e-01 -7.964546e-02 4.052367e-04 -1.862848e-03 -7.463213e-04
-6.040168e-02 4.885964e-01 5.105553e-02 -1.476505e-04 2.064440e-03 4.712027e-04
2.460114e-01 3.829888e-01 1.252614e-01 7.137000e-04 1.307054e-03 1.184593e-03
3.467021e-01 -2.062688e-01 -1.703573e-01 8.434489e-04 -4.605582e-04 -1.405960e-03
-2.930036e-01 -1.307313e-01 1.985230e-01 -2.051706e-04 -7.652576e-05 1.449168e-03
-2.070310e-01 -4.227594e-01 1.018906e-01 -8.499996e-04 -1.556663e-03 1.021394e-03
2.118938e-01 -2.419003e-01 1.984229e-01 1.415713e-04 -1.415713e-04 1.324838e-03
-9.534622e-02 3.542463e-01 -1.879376e-01 -9.205210e-05 4.231683e-04 -1.400438e-03
-4.298616e-01 9.656151e-02 1.406010e-01 -1.265972e-03 2.753969e-04 1.392737e-03
1.883909e-02 1.908481e-01 1.678840e-01 -3.427477e-05 -4.792742e-04 7.029792e-04
1.454469e-01 4.715225e-01 -4.683603e-02 7.136270e-04 1.913307e-03 -4.648902e-04
-4.778016e-01 1.277377e-01 4.062673e-02 -1.995387e-03 4.340630e-04 4.648878e-04
3.101114e-01 2.357769e-01 1.777570e-01 5.925734e-04 4.435935e-04 1.533145e-03
4.320401e-01 1.637853e-01 -1.152105e-01 1.453540e-03 5.421372e-04 -1.234021e-03
5.861960e-02 4.766726e-01 8.506626e-02 1.360135e-04 1.901587e-03 7.463034e-04
4.059451e-01 1.537642e-01 -1.466275e-01 1.154339e-03 4.305504e-04 -1.324384e-03
-3.272071e-01 -1.563711e-01 1.892653e-01 -3.801154e-04 -2.075563e-04 1.400454e-03
-4.835445e-01 8.505847e-02 -5.582774e-02 -1.995387e-03 4.340775e-04 -4.648704e-04
4.015434e-01 -9.446043e-02 1.640013e-01 9.390326e-04 -2.042763e-04 1.405956e-03
2.046977e-01 4.363093e-01 8.148786e-02 9.344388e-04 1.711299e-03 7.633003e-04
4.665558e-01 -3.025754e-02 -1.066502e-01 1.714050e-03 -1.226032e-04 -9.895971e-04
-7.707448e-03 2.119521e-01 1.792264e-01 2.640044e-05 -3.691651e-04 7.665655e-04
1.306230e-02 1.571273e-01 1.403695e-01 -3.173825e-05 -4.438374e-04 4.783280e-04
-3.950368e-01 2.995060e-01 -3.317951e-02 -1.656882e-03 1.240334e-03 -4.712033e-04
-1.302465e-01 -2.907956e-01 1.988616e-01 -6.996694e-05 -1.875899e-04 1.324839e-03
-4.362444e-01 1.825939e-01 9.792686e-02 -1.610055e-03 6.005266e-04 9.896037e-04
1.129312e-01 -3.534167e-01 -1.866446e-01 1.638885e-04 -4.394017e-04 -1.516551e-03
3.889156e-03 1.136278e-01 -7.174342e-02 -3.084512e-05 -4.311917e-04 -1.692241e-04
4.302941e-01 -1.954326e-01 -9.981683e-02 1.661809e-03 -6.198244e-04 -1.021405e-03
1.819760e-01 3.290961e-01 -1.842752e-01 3.308647e-04 6.059325e-04 -1.429903e-03
-3.678679e-01 3.092289e-01 8.463809e-02 -1.526187e-03 1.142494e-03 7.463137e-04
3.016165e-01 -2.902287e-01 1.598649e-01 7.214876e-04 -7.214792e-04 1.492735e-03
1.334061e-01 -1.273012e-01 -1.628548e-01 -2.978057e-04 2.978057e-04 -6.161626e-04
4.534671e-01 5.398212e-02 1.225950e-01 1.547396e-03 1.106827e-04 1.233997e-03
4.294444e-01 -1.921225e-01 1.032082e-01 1.610055e-03 -6.005266e-04 9.896153e-04
-3.052362e-01 2.135343e-01 1.860771e-01 -5.526776e-04 4.137300e-04 1.429911e-03
3.320871e-01 3.718573e-01 1.287444e-02 1.503675e-03 1.503675e-03 1.589758e-04
4.621081e-01 -8.402252e-02 1.033816e-01 1.733083e-03 -3.770053e-04 1.021405e-03
1.401550e-01 4.478947e-01 1.047256e-01 6.198124e-04 1.661764e-03 1.021384e-03
2.417015e-01 -3.645634e-01 -1.442003e-01 7.764181e-04 -1.037176e-03 -1.392712e-03
-3.546524e-01 -2.000650e-01 -1.676200e-01 -8.434489e-04 -4.605582e-04 -1.405941e-03
1.175439e-01 3.753278e-01 1.762178e-01 2.586737e-04 6.935448e-04 1.533094e-03
2.409906e-01 4.168203e-01 -8.075220e-02 9.136364e-04 1.673217e-03 -7.463100e-04
-4.460690e-02 -2.815744e-01 1.994410e-01 000000 000000 1.212654e-03
-2.843858e-01 -2.982038e-02 1.994406e-01 000000 -1.494600e-08 1.212644e-03
4.337211e-01 -7.156716e-02 -1.420352e-01 1.203868e-03 -2.618762e-04 -1.324412e-03
-4.969576e-02 4.787928e-01 -8.129006e-02 -1.360110e-04 1.901553e-03 -7.463376e-04
-4.206182e-01 -8.804275e-02 -1.506875e-01 -1.203868e-03 -2.618762e-04 -1.324386e-03
2.722335e-01 1.740517e-01 1.982012e-01 1.922147e-04 1.049560e-04 1.449189e-03
8.954032e-02 4.271371e-01 1.444659e-01 2.753969e-04 1.265972e-03 1.392737e-03
-4.944158e-02 4.298942e-01 -1.482639e-01 -8.789524e-05 1.228886e-03 -1.324414e-03
3.477529e-01 3.375173e-01 -7.249974e-02 1.378698e-03 1.378698e-03 -7.632622e-04
-4.173969e-01 1.438892e-01 1.398563e-01 -1.213902e-03 4.527631e-04 1.392740e-03
-4.600101e-01 -3.864429e-02 -1.157663e-01 -1.547396e-03 -1.106710e-04 -1.234017e-03
-6.223548e-02 2.033536e-01 -1.793806e-01 1.467555e-04 -3.934709e-04 -8.697910e-04
-2.799097e-02 -4.963515e-01 2.196914e-02 -1.510248e-04 -2.111619e-03 1.582373e-04
2.793225e-01 2.808696e-02 -1.988799e-01 -1.807485e-04 -1.292763e-05 -1.199094e-03
2.196025e-01 1.415617e-01 -1.958606e-01 -1.450644e-04 -1.085939e-04 -1.199076e-03
-1.957254e-01 -4.061650e-02 -1.733960e-01 3.616490e-04 7.867602e-05 -7.665633e-04
3.053316e-01 -3.922008e-01 2.374249e-02 1.268680e-03 -1.694762e-03 1.582727e-04
-3.251648e-01 6.336002e-02 1.968631e-01 -2.139977e-04 4.655106e-05 1.449163e-03
8.981497e-02 1.304139e-01 1.408970e-01 -3.047563e-04 -4.071076e-04 5.466787e-04
-3.833226e-01 1.888346e-01 -1.532808e-01 -1.081317e-03 5.904514e-04 -1.324385e-03
4.118353e-01 2.791874e-01 2.306506e-02 1.694762e-03 1.268680e-03 1.582727e-04
-6.434622e-02 4.953607e-01 4.929614e-04 -1.517104e-04 2.121098e-03 1.589477e-04
-4.848188e-01 -1.008847e-01 3.558038e-02 -2.022417e-03 -4.399498e-04 4.711857e-04
3.603076e-02 -2.398930e-01 -1.910349e-01 -6.827256e-05 3.138344e-04 -1.038620e-03
-3.401895e-01 3.385025e-01 8.438221e-02 -1.348072e-03 1.348058e-03 7.462900e-04
2.243479e-01 4.057834e-01 -1.131623e-01 7.434740e-04 1.361589e-03 -1.234017e-03
3.706542e-01 3.322643e-01 -2.257718e-02 1.503675e-03 1.503675e-03 -1.589758e-04
1.987087e-01 -4.573346e-01 -1.050061e-02 7.398172e-04 -1.983532e-03 -1.582464e-04
-5.246392e-02 -4.620672e-01 1.116735e-01 -1.226008e-04 -1.714017e-03 9.896088e-04
7.228606e-02 -1.535958e-01 1.513389e-01 -2.132522e-04 3.905371e-04 4.783350e-04
8.344349e-02 8.160772e-02 7.964395e-02 -3.363268e-04 -3.363268e-04 1.862002e-04
2.835431e-01 -2.740223e-01 -1.754852e-01 5.234108e-04 -5.234108e-04 -1.533146e-03
-3.057576e-01 -6.088820e-02 -1.994407e-01 -2.127000e-09 1.479400e-08 -1.339814e-03
-1.653523e-01 -3.553359e-01 -1.770025e-01 -3.308647e-04 -6.059325e-04 -1.429903e-03
-1.267832e-01 4.217591e-01 -1.416152e-01 -4.527631e-04 1.213902e-03 -1.392721e-03
1.583595e-01 1.841170e-01 1.911045e-01 -1.709545e-04 -2.283682e-04 9.225002e-04
1.854514e-01 4.620755e-01 1.305530e-02 7.398172e-04 1.983532e-03 1.582464e-04
3.430059e-01 2.971002e-01 1.270289e-01 1.241920e-03 9.296902e-04 1.234032e-03
-1.944738e-02 -1.019022e-01 -3.742529e-02 9.035632e-05 4.153681e-04 -9.677638e-05
3.548458e-01 7.746690e-03 1.916247e-01 4.319612e-04 3.089402e-05 1.400436e-03
-9.888743e-02 -1.118690e-01 1.310416e-01 3.616585e-04 3.616585e-04 4.068378e-04
-2.714588e-01 1.263446e-01 -1.994410e-01 000000 000000 -1.212657e-03
1.248970e-01 -3.105306e-01 -1.963498e-01 7.653435e-05 -2.051936e-04 -1.449183e-03
1.330346e-01 -4.942192e-02 1.221040e-01 -4.209962e-04 1.570264e-04 3.574132e-04
-1.145457e-01 -1.500241e-01 -1.658604e-01 2.879468e-04 3.846587e-04 -7.029696e-04
2.081586e-01 -1.730203e-01 -1.973251e-01 -1.450666e-04 1.085939e-04 -1.199095e-03
3.371637e-01 9.881871e-02 1.928712e-01 4.582561e-04 9.968640e-05 1.516560e-03
2.739076e-01 -2.579582e-01 1.842591e-01 4.881649e-04 -4.881713e-04 1.429915e-03
1.870508e-01 1.578937e-03 -1.644535e-01 -4.792742e-04 -3.427477e-05 -7.029792e-04
-1.007657e-01 2.071967e-01 -1.873471e-01 1.367169e-04 -2.503724e-04 -9.225093e-04
-1.820304e-02 -1.396045e-01 -1.203812e-01 3.648135e-05 5.101663e-04 -4.068504e-04
-1.237653e-01 4.509234e-01 -1.076902e-01 -3.652726e-04 1.679167e-03 -9.895923e-04
-4.320538e-01 -1.800577e-01 1.062838e-01 -1.661806e-03 -6.198312e-04 1.021393e-03
-2.955795e-01 3.870029e-01 -6.640312e-02 -1.168462e-03 1.560871e-03 -7.632685e-04
-2.031553e-01 -2.754033e-01 -1.951984e-01 -1.312434e-04 -1.753217e-04 -1.449184e-03
8.391796e-02 5.488076e-02 4.325453e-03 -3.404727e-04 -2.548776e-04 3.179094e-05
-1.685223e-01 -1.907446e-01 -1.947365e-01 2.271083e-04 2.271039e-04 -1.038623e-03
-3.765909e-01 3.276098e-01 1.044703e-02 -1.503675e-03 1.503660e-03 1.589499e-04
-4.341202e-01 -3.355768e-02 1.453968e-01 -1.292282e-03 -9.242927e-05 1.392740e-03
4.593201e-01 1.891428e-02 1.184010e-01 1.547396e-03 1.106827e-04 1.233997e-03
2.178098e-01 4.447430e-01 -3.758830e-02 9.786489e-04 1.792264e-03 -4.648914e-04
1.739579e-01 -8.303088e-02 -1.684075e-01 -3.696472e-04 2.018431e-04 -6.161715e-04
3.768840e-01 -2.799643e-01 1.032434e-01 1.375648e-03 -1.029811e-03 9.896051e-04
-1.793982e-01 8.717434e-02 1.730285e-01 4.217202e-04 -2.302833e-04 7.029767e-04
1.916831e-01 -3.652790e-01 -1.639908e-01 4.889900e-04 -8.955219e-04 -1.492760e-03
3.403222e-02 -2.941187e-01 1.994410e-01 000000 000000 1.339815e-03
-1.718913e-02 4.644246e-01 -1.119606e-01 -1.226032e-04 1.714050e-03 -9.896064e-04
1.053025e-01 -1.852840e-01 1.797692e-01 -2.012620e-04 3.685750e-04 8.697836e-04
1.677200e-01 -3.978067e-01 1.491840e-01 4.527631e-04 -1.213902e-03 1.392719e-03
-4.823833e-01 -8.408995e-02 -6.055910e-02 -1.905212e-03 -4.144608e-04 -7.633150e-04
-1.361851e-01 -1.459354e-01 1.732043e-01 3.397673e-04 3.397673e-04 7.029813e-04
4.563928e-01 -9.887063e-02 -1.075987e-01 1.679167e-03 -3.652726e-04 -9.896100e-04
-4.927145e-01 6.173999e-02 3.259431e-02 -2.064440e-03 1.476505e-04 4.711889e-04
-2.451100e-01 -2.457849e-02 1.923241e-01 3.203768e-04 2.291741e-05 1.038609e-03
3.300615e-01 -1.660550e-01 1.870557e-01 4.116045e-04 -2.247514e-04 1.516533e-03
2.186244e-01 -1.409980e-01 1.956913e-01 -1.450644e-04 1.085939e-04 1.199092e-03
-1.924164e-02 2.347866e-01 -1.890221e-01 2.033927e-05 -2.845577e-04 -9.224981e-04
2.437353e-01 3.735657e-01 -1.363626e-01 7.764181e-04 1.037166e-03 -1.392715e-03
-1.765481e-01 -2.394379e-01 -1.994410e-01 000000 000000 -1.212653e-03
-3.992067e-01 1.119257e-01 1.630244e-01 -9.390326e-04 2.042763e-04 1.405956e-03
-4.533517e-01 1.792061e-01 -6.525896e-02 -1.826841e-03 6.813769e-04 -7.633017e-04
7.454858e-02 -8.340777e-02 6.682874e-02 -3.056631e-04 3.056631e-04 1.692239e-04
1.272837e-01 3.863577e-01 -1.680802e-01 3.358355e-04 9.004051e-04 -1.405960e-03
-7.523358e-02 -9.149916e-02 8.379712e-02 2.850444e-04 3.807781e-04 1.862069e-04
2.586004e-03 4.995763e-01 3.185219e-03 1.517104e-04 2.121098e-03 1.589659e-04
3.275112e-02 -1.987058e-01 -1.739949e-01 -7.867602e-05 3.616490e-04 -7.665633e-04
-1.596722e-01 2.386157e-01 1.994410e-01 000000 000000 1.212628e-03
-5.910647e-02 4.614302e-01 -1.119538e-01 -1.226032e-04 1.714050e-03 -9.896064e-04
-9.503798e-02 -4.745454e-01 -7.417835e-02 -4.052367e-04 -1.862848e-03 -7.463342e-04
-4.128061e-01 -2.241610e-01 1.028045e-01 -1.508232e-03 -8.235461e-04 9.895953e-04
3.930057e-01 -2.893753e-01 -6.362533e-02 1.560885e-03 -1.168462e-03 -7.633146e-04
-4.458021e-02 -4.086261e-01 -1.651501e-01 -7.279284e-05 -1.017736e-03 -1.492766e-03
1.671451e-01 8.968120e-02 1.664989e-01 -4.217202e-04 -2.302833e-04 7.029688e-04
-1.531265e-01 -2.832666e-01 -1.982533e-01 -9.595142e-05 -1.757227e-04 -1.324833e-03
-2.024795e-01 -2.018553e-01 -1.994410e-01 000000 000000 -1.212641e-03
-1.554040e-02 -2.281051e-01 -1.868797e-01 2.035226e-05 2.845439e-04 -9.225029e-04
-4.053411e-01 -1.862354e-01 -1.364622e-01 -1.137118e-03 -6.209088e-04 -1.392724e-03
-4.203373e-01 2.437223e-01 -6.952218e-02 -1.711268e-03 9.344220e-04 -7.632964e-04
2.718634e-01 9.371474e-02 1.994410e-01 000000 000000 1.212632e-03
-3.062990e-01 -2.414103e-01 -1.776005e-01 -5.925505e-04 -4.435764e-04 -1.533121e-03
1.807760e-01 -3.240592e-01 1.865031e-01 2.247559e-04 -4.116089e-04 1.516561e-03
2.773964e-01 7.778689e-02 -1.994410e-01 000000 000000 -1.212630e-03
6.574781e-02 1.551151e-01 1.502790e-01 -1.555093e-04 -4.169178e-04 4.783464e-04
-5.757823e-02 3.863382e-01 1.776625e-01 -1.467301e-04 6.745780e-04 1.429892e-03
1.316969e-01 -7.899741e-03 -1.083503e-01 -4.964479e-04 3.551696e-05 -2.866213e-04
-2.617472e-01 -2.259297e-01 1.945811e-01 -3.754380e-04 -2.810353e-04 1.516541e-03
2.773778e-02 3.169899e-01 1.988339e-01 1.428211e-05 1.997022e-04 1.324827e-03
3.115923e-01 -3.883168e-01 -1.514640e-02 1.268680e-03 -1.694762e-03 -1.582664e-04
-4.755312e-01 1.342230e-01 -4.431653e-02 -2.022417e-03 4.399498e-04 -4.711857e-04
1.064812e-01 -2.602865e-02 -6.143502e-02 -4.224126e-04 9.188145e-05 -1.692325e-04
1.484522e-01 -2.008983e-01 1.934228e-01 -1.924742e-04 2.571124e-04 1.038618e-03
2.426947e-01 2.403125e-01 1.953012e-01 1.548576e-04 1.548576e-04 1.449172e-03
1.783653e-01 6.033916e-03 1.587493e-01 -4.200869e-04 -3.004830e-05 6.161657e-04
-5.693784e-02 -2.261420e-01 -1.882541e-01 6.063827e-05 2.787466e-04 -9.224944e-04
-1.385948e-01 8.803262e-02 -1.461114e-01 4.463382e-04 -2.437197e-04 -5.466824e-04
-2.044421e-01 -1.608008e-01 1.957688e-01 1.300080e-04 9.732393e-05 1.074747e-03
3.745969e-01 -2.724813e-01 -1.137831e-01 1.241920e-03 -9.297019e-04 -1.234011e-03
4.879052e-01 9.101970e-02 3.154412e-02 2.022417e-03 4.399498e-04 4.711857e-04
-3.163374e-01 1.346385e-01 -1.950131e-01 -2.051936e-04 7.653435e-05 -1.449168e-03
8.079958e-03 2.824023e-01 -1.991284e-01 -1.292763e-05 -1.807485e-04 -1.199089e-03
-3.560056e-01 -1.322332e-01 1.824801e-01 -6.468425e-04 -2.412744e-04 1.429869e-03
-4.550691e-01 -1.652154e-01 -7.363769e-02 -1.826841e-03 -6.813769e-04 -7.632982e-04
3.984002e-02 -3.764486e-01 -1.831748e-01 4.924709e-05 -6.886162e-04 -1.429881e-03
-5.782674e-03 4.231966e-01 -1.571082e-01 -7.279284e-05 1.017736e-03 -1.492772e-03
-1.652450e-01 4.993922e-02 -1.539691e-01 4.169178e-04 -1.555093e-04 -4.783359e-04
-2.371249e-01 -4.117584e-01 -9.361255e-02 -8.500161e-04 -1.556680e-03 -1.021369e-03
-4.965739e-01 -3.307992e-02 -1.414438e-02 -2.121098e-03 -1.517104e-04 -1.589659e-04
1.155294e-01 1.469315e-01 1.645711e-01 -2.523923e-04 -3.371573e-04 6.161639e-04
2.257925e-01 -4.315641e-01 -6.630207e-02 9.344220e-04 -1.711282e-03 -7.632577e-04
-3.073867e-01 -1.962518e-01 -1.887343e-01 -3.801154e-04 -2.075563e-04 -1.400440e-03
-1.632385e-01 3.537578e-01 -1.781603e-01 -3.547490e-04 6.496738e-04 -1.533126e-03
3.885002e-01 4.472851e-02 -1.772025e-01 6.886162e-04 4.924709e-05 -1.429881e-03
-1.001946e-02 -1.060893e-01 4.983997e-02 3.230446e-05 4.515922e-04 1.030716e-04
2.269674e-01 -1.375122e-01 -1.965363e-01 -1.590435e-04 8.684438e-05 -1.199083e-03
-3.475152e-01 3.569664e-01 -7.791332e-03 -1.503675e-03 1.503660e-03 -1.589750e-04
-4.064100e-01 -2.717745e-01 6.315814e-02 -1.526162e-03 -1.142469e-03 7.462934e-04
-9.860129e-02 2.800310e-02 -3.124588e-02 4.153681e-04 -9.035632e-05 -9.677638e-05
-7.310975e-02 -1.459535e-01 1.454665e-01 2.437197e-04 4.463382e-04 5.466799e-04
2.993817e-01 3.979217e-01 1.017757e-02 1.274373e-03 1.702363e-03 1.589613e-04
4.085730e-01 -2.677585e-01 6.488261e-02 1.560913e-03 -1.168483e-03 7.633011e-04
4.154014e-01 -2.631289e-01 -5.530510e-02 1.816554e-03 -9.919087e-04 -4.711994e-04
4.365784e-01 -9.050637e-02 1.355729e-01 1.455176e-03 -3.165534e-04 1.184581e-03
-1.550417e-01 -3.522118e-01 1.803482e-01 -2.412615e-04 -6.468463e-04 1.429890e-03
3.360612e-01 2.396620e-01 -1.638586e-01 8.168188e-04 6.114565e-04 -1.492741e-03
-1.294552e-01 2.205785e-02 -1.070668e-01 4.324046e-04 -9.406596e-05 -2.548346e-04
1.769402e-01 -3.630088e-01 1.701821e-01 4.605582e-04 -8.434489e-04 1.405960e-03
1.877328e-01 -1.244139e-01 1.854473e-01 -3.361889e-04 2.516634e-04 8.697925e-04
3.773165e-01 8.314525e-02 1.792950e-01 7.232980e-04 1.573456e-04 1.533095e-03
-2.723802e-01 1.553192e-02 1.976980e-01 1.807485e-04 -1.292763e-05 1.199094e-03
2.686720e-01 4.109970e-01 -5.822232e-02 1.223766e-03 1.634749e-03 -4.649056e-04
2.051944e-01 3.220486e-01 1.818892e-01 3.308647e-04 6.059325e-04 1.429905e-03
1.831047e-01 3.974178e-01 1.443271e-01 6.209088e-04 1.137118e-03 1.392724e-03
2.967538e-01 3.984253e-01 -2.585049e-02 1.268680e-03 1.694747e-03 -1.582504e-04
-7.894561e-02 6.217879e-02 9.583844e-03 3.404727e-04 -2.548776e-04 3.178972e-05
-2.471444e-01 -1.945919e-01 1.993925e-01 -1.602699e-04 -1.199563e-04 1.324856e-03
2.702538e-01 3.458848e-03 1.972473e-01 -1.620064e-04 -1.158876e-05 1.074758e-03
7.829751e-02 3.965195e-01 -1.697053e-01 2.042678e-04 9.390326e-04 -1.405948e-03
-2.903404e-02 2.683653e-01 -1.972381e-01 1.158523e-05 -1.619883e-04 -1.074753e-03
-1.857985e-01 -4.568036e-01 -4.547194e-02 -7.232877e-04 -1.939215e-03 -4.711903e-04
2.987553e-01 3.889472e-01 5.656828e-02 1.223766e-03 1.634749e-03 4.649089e-04
4.768241e-01 -7.159609e-02 -8.121870e-02 1.862862e-03 -4.052367e-04 -7.463468e-04
1.156924e-01 1.855417e-01 1.822826e-01 -1.773777e-04 -3.248337e-04 7.665614e-04
-3.267737e-02 -4.017973e-01 1.703862e-01 -6.855795e-05 -9.585485e-04 1.405953e-03
-3.996067e-01 -1.898405e-01 1.395369e-01 -1.081317e-03 -5.904514e-04 1.324385e-03
9.096336e-02 3.417924e-01 1.919888e-01 9.205210e-05 4.231683e-04 1.400438e-03
3.707589e-01 -3.263937e-01 4.534279e-02 1.463507e-03 -1.463507e-03 4.711798e-04
-1.952562e-01 4.357560e-01 9.103750e-02 -6.198124e-04 1.661777e-03 1.021393e-03
-2.340293e-01 -4.330930e-01 4.835801e-02 -9.786489e-04 -1.792264e-03 4.648991e-04
1.250233e-01 3.096718e-02 1.028352e-01 -4.863485e-04 -1.057893e-04 2.866306e-04
3.507614e-01 -1.557128e-01 -1.808910e-01 6.935448e-04 -2.586802e-04 -1.533137e-03
-2.917935e-01 -8.573348e-02 1.994410e-01 4.210750e-09 -1.434050e-08 1.212632e-03
-1.732366e-01 -2.256909e-01 1.994410e-01 000000 000000 1.212643e-03
1.171743e-01 -4.342001e-01 -1.313679e-01 3.165534e-04 -1.455176e-03 -1.184588e-03
1.148111e-01 3.092152e-01 1.970687e-01 7.653435e-05 2.051936e-04 1.449183e-03
3.046195e-01 3.282997e-01 -1.334333e-01 1.053028e-03 1.053028e-03 -1.184597e-03
-4.132982e-02 1.119269e-01 8.629702e-02 1.662156e-04 -4.456532e-04 1.862047e-04
2.619286e-02 -2.390764e-01 1.904988e-01 -2.291611e-05 3.203586e-04 1.038609e-03
-9.762018e-03 3.849515e-01 -1.801158e-01 -5.280735e-05 7.383302e-04 -1.533131e-03
-2.295113e-01 6.536531e-02 1.898259e-01 2.787664e-04 -6.062800e-05 9.224896e-04
4.851634e-01 -1.135922e-01 -6.746269e-03 2.077921e-03 -4.520161e-04 -1.589670e-04
-4.650181e-01 1.215347e-03 -1.128433e-01 -1.547396e-03 1.106827e-04 -1.233997e-03
-3.919982e-01 -2.392825e-01 -1.193747e-01 -1.307054e-03 -7.137000e-04 -1.184593e-03
1.915903e-01 -3.351592e-02 -1.696819e-01 -4.695163e-04 1.021423e-04 -7.029765e-04
2.934037e-01 -3.682065e-01 -1.013208e-01 1.029818e-03 -1.375675e-03 -9.896002e-04
3.712462e-02 4.608385e-01 1.148635e-01 1.106827e-04 1.547396e-03 1.234017e-03
-2.731440e-01 4.079922e-01 5.701660e-02 -1.223766e-03 1.634749e-03 4.648846e-04
3.995767e-03 -4.882047e-01 -6.563712e-02 1.390858e-04 -1.944808e-03 -7.632665e-04
1.888802e-01 4.478459e-01 -6.980045e-02 6.813769e-04 1.826841e-03 -7.632894e-04
1.383686e-01 5.214519e-02 -1.295832e-01 -4.792238e-04 -1.787493e-04 -4.068519e-04
3.400666e-01 -3.012921e-01 1.259310e-01 1.096976e-03 -1.096965e-03 1.234007e-03
-3.969116e-01 -6.487899e-03 -1.744689e-01 -7.383302e-04 -5.280735e-05 -1.533131e-03
5.160105e-02 -4.434835e-01 1.353277e-01 1.062423e-04 -1.485406e-03 1.184581e-03
-4.406930e-02 -1.762726e-01 1.609847e-01 8.952189e-05 4.115414e-04 6.161710e-04
-3.544680e-02 -4.808399e-01 7.867121e-02 -1.360135e-04 -1.901601e-03 7.463064e-04
2.434015e-01 -1.689501e-01 1.994410e-01 000000 000000 1.339812e-03
-2.837403e-01 -2.625005e-01 1.793514e-01 -4.881713e-04 -4.881649e-04 1.429915e-03
2.264344e-01 4.645732e-02 1.876535e-01 -2.787466e-04 -6.063827e-05 9.224785e-04
-2.473739e-01 4.163015e-01 -7.410027e-02 -9.136364e-04 1.673231e-03 -7.462968e-04
-1.332467e-01 -9.001175e-02 -1.431163e-01 4.071076e-04 3.047563e-04 -5.466787e-04
-1.704644e-01 3.985265e-01 -1.476645e-01 -4.305504e-04 1.154349e-03 -1.324394e-03
4.121831e-01 -1.601802e-01 -1.391048e-01 1.213902e-03 -4.527631e-04 -1.392730e-03
3.119542e-01 1.688588e-01 -1.915546e-01 3.800938e-04 2.075445e-04 -1.400440e-03
-2.804022e-01 -3.556732e-01 1.268604e-01 -8.924493e-04 -1.192164e-03 1.184569e-03
-2.287210e-01 2.338174e-01 -1.974885e-01 -1.548576e-04 1.548576e-04 -1.449172e-03
2.693565e-01 4.158245e-01 3.944577e-02 1.240334e-03 1.656882e-03 4.712000e-04
4.515341e-02 -4.791686e-01 -8.116041e-02 1.360110e-04 -1.901553e-03 -7.463376e-04
2.799248e-01 -4.106033e-01 -2.998519e-02 1.240334e-03 -1.656897e-03 -4.711815e-04
2.119094e-01 2.148502e-01 1.994410e-01 000000 000000 1.339819e-03
-4.682354e-01 -1.699069e-01 -8.516118e-03 -1.992445e-03 -7.431408e-04 -1.589560e-04
1.124997e-01 5.510533e-03 6.916444e-02 -4.311839e-04 -3.084457e-05 1.692241e-04
-3.421864e-01 3.065900e-01 1.193370e-01 -1.096976e-03 1.096965e-03 1.234007e-03
-3.053223e-01 2.703997e-01 1.676577e-01 -7.214876e-04 7.214876e-04 1.492764e-03
4.054961e-01 -2.275152e-01 1.111543e-01 1.508203e-03 -8.235302e-04 9.895765e-04
7.310538e-02 -1.427525e-01 -1.428511e-01 -2.437197e-04 4.463382e-04 -5.466799e-04
2.270522e-01 1.085809e-01 1.938944e-01 -2.818875e-04 -1.539238e-04 1.038609e-03
3.529110e-02 -4.969260e-01 7.337297e-03 1.517104e-04 -2.121098e-03 1.589477e-04
-1.771515e-01 4.143145e-01 1.302168e-01 -5.421489e-04 1.453540e-03 1.234011e-03
3.175499e-01 -3.237818e-01 -1.259550e-01 1.096976e-03 -1.096965e-03 -1.234030e-03
-1.104814e-01 4.722689e-01 -7.147439e-02 -4.052367e-04 1.862848e-03 -7.463213e-04
2.410305e-01 3.138902e-01 1.747765e-01 4.435935e-04 5.925734e-04 1.533121e-03
1.843813e-01 1.156881e-01 -1.817898e-01 -3.248336e-04 -1.773777e-04 -7.665614e-04
-3.668976e-01 -2.649578e-01 -1.271999e-01 -1.241920e-03 -9.296902e-04 -1.234018e-03
8.696574e-02 2.437496e-01 1.955791e-01 -5.676084e-05 -1.521798e-04 1.074761e-03
3.704375e-01 -2.954592e-02 -1.863346e-01 4.677759e-04 -3.345347e-05 -1.516560e-03
2.915167e-01 1.443010e-01 1.977982e-01 1.757205e-04 9.595142e-05 1.324820e-03
4.717640e-01 1.517010e-01 3.624166e-02 1.913307e-03 7.136270e-04 4.648902e-04
-1.373520e-01 4.381913e-01 1.195778e-01 -5.204260e-04 1.395312e-03 1.184589e-03
-2.148680e-01 -4.015534e-01 -1.235410e-01 -7.137000e-04 -1.307054e-03 -1.184583e-03
2.264571e-01 3.081675e-01 -1.812049e-01 4.137300e-04 5.526712e-04 -1.429893e-03
1.542376e-01 -2.975528e-01 1.962779e-01 1.049560e-04 -1.922147e-04 1.449189e-03
3.040931e-01 3.542837e-01 -1.095516e-01 1.062902e-03 1.419865e-03 -1.021390e-03
-2.349835e-02 1.508774e-01 1.353121e-01 1.087196e-04 -4.997898e-04 4.068539e-04
1.342799e-01 -1.088075e-01 1.543637e-01 -4.071076e-04 3.047563e-04 5.466787e-04
5.806507e-02 8.456789e-02 3.210920e-02 -2.547492e-04 -3.402970e-04 9.677825e-05
-1.297024e-01 3.697456e-01 -1.766918e-01 -2.586802e-04 6.935448e-04 -1.533125e-03
-2.153500e-01 -8.293164e-02 1.875354e-01 2.672882e-04 9.967710e-05 9.225036e-04
-2.273838e-01 4.437999e-01 -3.195132e-03 -1.019123e-03 1.866400e-03 -1.589570e-04
-2.528006e-01 3.095817e-01 1.729660e-01 -5.759020e-04 7.693174e-04 1.405935e-03
-3.591096e-01 -1.295630e-01 -1.815267e-01 -6.468158e-04 -2.412644e-04 -1.429890e-03
2.334746e-02 4.588841e-01 -1.185500e-01 1.106827e-04 1.547396e-03 -1.233997e-03
3.101107e-01 2.101729e-02 1.994410e-01 000000 000000 1.339815e-03
3.322246e-01 3.705882e-01 -2.357707e-02 1.496953e-03 1.496953e-03 -1.582652e-04
-2.841299e-01 -4.100673e-01 2.373933e-03 -1.274373e-03 -1.702363e-03 1.589327e-04
-4.911872e-01 -5.465945e-02 4.150515e-02 -2.064440e-03 -1.476505e-04 4.711673e-04
-2.058688e-01 1.464452e-01 1.942814e-01 2.571124e-04 -1.924698e-04 1.038601e-03
1.003682e-01 -4.561137e-01 -1.075198e-01 3.652856e-04 -1.679167e-03 -9.895945e-04
-1.026444e-01 5.746679e-02 -8.199677e-02 4.174596e-04 -2.279506e-04 -1.861935e-04
1.946818e-02 -1.126404e-01 -7.324712e-02 -1.011197e-04 4.647916e-04 -1.862121e-04
-4.385492e-01 -2.359507e-01 -9.921939e-03 -1.866400e-03 -1.019123e-03 -1.589570e-04
1.774653e-01 4.624209e-01 -3.514533e-02 7.232877e-04 1.939215e-03 -4.711903e-04
4.871847e-01 1.038458e-01 -8.039920e-03 2.077921e-03 4.520161e-04 -1.589488e-04
3.717285e-01 -1.696583e-01 1.673270e-01 9.004051e-04 -3.358355e-04 1.405982e-03
-1.205829e-01 -3.558046e-01 1.845370e-01 -2.412615e-04 -6.468463e-04 1.429890e-03
4.196366e-01 2.572857e-01 -5.127799e-02 1.792264e-03 9.786489e-04 -4.648823e-04
1.530316e-01 -4.244638e-01 -1.288588e-01 5.204260e-04 -1.395312e-03 -1.184594e-03
1.072784e-01 4.665045e-01 -8.733763e-02 3.770126e-04 1.733116e-03 -1.021395e-03
-1.333031e-01 -4.768234e-01 3.962878e-02 -4.340630e-04 -1.995387e-03 4.648878e-04
-4.611636e-01 -1.638339e-01 6.028459e-02 -1.826841e-03 -6.813769e-04 7.633017e-04
-4.919166e-02 -1.472689e-01 -1.380580e-01 1.555093e-04 4.169178e-04 -4.783359e-04
-1.062973e-01 9.726713e-02 -1.246483e-01 3.177219e-04 -3.177219e-04 -3.574126e-04
4.136579e-01 2.396973e-01 -8.857720e-02 1.556693e-03 8.500031e-04 -1.021361e-03
2.292269e-01 -2.628627e-01 -1.936455e-01 3.316096e-04 -3.316140e-04 -1.516521e-03
2.570770e-02 3.204159e-01 -1.983394e-01 1.428211e-05 1.997022e-04 -1.324834e-03
3.972506e-02 4.341718e-01 1.449397e-01 8.789524e-05 1.228886e-03 1.324416e-03
-1.111293e-01 -4.860159e-01 -2.606661e-03 -4.520161e-04 -2.077921e-03 -1.589670e-04
-3.540700e-01 -3.350328e-01 6.557686e-02 -1.378723e-03 -1.378723e-03 7.632869e-04
-3.230610e-01 1.311654e-01 1.934693e-01 -4.057588e-04 1.513424e-04 1.400449e-03
-1.388118e-01 -3.878953e-01 1.643416e-01 -3.565637e-04 -9.559974e-04 1.492763e-03
-3.566660e-01 1.724386e-01 -1.747991e-01 -6.496738e-04 3.547490e-04 -1.533127e-03
-2.288285e-01 -3.067437e-01 -1.810692e-01 -4.137300e-04 -5.526776e-04 -1.429904e-03
-1.094884e-01 4.834664e-01 3.335182e-02 -4.399498e-04 2.022417e-03 4.711857e-04
-9.766012e-02 1.080547e-01 1.265599e-01 3.177219e-04 -3.177219e-04 3.574126e-04
3.504011e-01 -3.543270e-01 -5.458850e-03 1.503675e-03 -1.503660e-03 -1.589750e-04
-1.110211e-01 -4.495744e-01 1.141260e-01 -3.297578e-04 -1.515904e-03 1.233998e-03
4.957184e-01 -2.590064e-02 3.066374e-02 2.064440e-03 -1.476505e-04 4.711889e-04
-3.685308e-01 -5.727487e-02 -1.860946e-01 -6.746059e-04 -1.467361e-04 -1.429904e-03
-8.918004e-02 4.027657e-01 -1.639523e-01 -2.168799e-04 9.970076e-04 -1.492750e-03
1.642444e-01 4.049795e-01 -1.440620e-01 4.527631e-04 1.213902e-03 -1.392719e-03
3.550486e-01 -3.248789e-01 8.215007e-02 1.348058e-03 -1.348058e-03 7.463106e-04
-3.657401e-01 5.572277e-02 -1.870691e-01 -4.231683e-04 9.205210e-05 -1.400447e-03
-4.930308e-01 -7.828958e-02 4.290530e-03 -2.068635e-03 -4.500040e-04 1.582386e-04
-3.672398e-01 -3.366686e-01 1.321442e-02 -1.496953e-03 -1.496953e-03 1.582652e-04
-3.903743e-02 9.355291e-02 -2.075480e-02 1.486401e-04 -3.984800e-04 -3.179125e-05
4.948758e-01 2.557044e-02 -3.445897e-02 2.064440e-03 1.476505e-04 -4.711889e-04
-9.440203e-02 -2.054108e-01 1.857758e-01 2.012620e-04 3.685750e-04 8.697817e-04
1.086333e-01 -4.786710e-01 5.473343e-02 4.340775e-04 -1.995387e-03 4.648704e-04
3.499710e-01 7.729307e-02 -1.904161e-01 4.582561e-04 9.968640e-05 -1.516569e-03
1.108267e-01 2.219395e-01 -1.928396e-01 -1.539194e-04 -2.818875e-04 -1.038617e-03
-3.519643e-01 -1.965091e-01 1.703975e-01 -8.434489e-04 -4.605582e-04 1.405960e-03
-1.757738e-01 -4.654524e-01 1.597155e-02 -7.398172e-04 -1.983532e-03 1.582464e-04
2.712745e-01 2.059029e-01 -1.954490e-01 1.753217e-04 1.312434e-04 -1.449194e-03
-3.041910e-01 3.576866e-01 1.047193e-01 -1.062881e-03 1.419837e-03 1.021390e-03
3.709279e-01 1.228017e-01 -1.773213e-01 6.935448e-04 2.586802e-04 -1.533125e-03
1.156561e-01 3.361005e-02 -8.791695e-02 -4.324035e-04 -9.407336e-05 -2.548459e-04
3.395180e-01 1.998097e-01 1.757324e-01 6.496738e-04 3.547490e-04 1.533127e-03
2.850702e-01 -1.779701e-01 1.962148e-01 1.757205e-04 -9.595142e-05 1.324838e-03
7.654795e-02 -1.075697e-01 -1.084591e-01 -2.982700e-04 3.984398e-04 -2.866285e-04
-2.717636e-01 -4.138286e-01 4.012784e-02 -1.240334e-03 -1.656882e-03 4.712000e-04
6.159097e-02 -4.937538e-01 -2.456594e-02 1.510248e-04 -2.111619e-03 -1.582373e-04
4.916599e-01 -6.447345e-02 3.635810e-02 2.036857e-03 -1.456834e-04 4.649071e-04
3.053301e-01 1.932098e-01 1.897437e-01 4.116089e-04 2.247559e-04 1.516561e-03
2.920533e-01 -9.749412e-02 1.994410e-01 000000 000000 1.339803e-03
2.879659e-01 -3.429668e-01 -1.339498e-01 8.924493e-04 -1.192176e-03 -1.184602e-03
-2.056947e-01 3.477139e-02 -1.774995e-01 3.616490e-04 -7.867602e-05 -7.665554e-04
8.583042e-02 -4.908686e-01 1.111247e-02 4.500040e-04 -2.068635e-03 1.582386e-04
-2.160814e-01 -1.334217e-01 -1.945981e-01 2.819035e-04 1.539326e-04 -1.038618e-03
-4.674048e-01 -9.107342e-02 -9.179158e-02 -1.733103e-03 -3.770126e-04 -1.021364e-03
-2.941558e-01 -3.445788e-01 -1.276640e-01 -9.297019e-04 -1.241920e-03 -1.234011e-03
-3.879214e-01 1.027714e-01 -1.718922e-01 -9.390326e-04 2.042678e-04 -1.405948e-03
-7.597570e-02 4.189975e-01 1.545468e-01 -2.618863e-04 1.203858e-03 1.324397e-03
2.263617e-01 -4.563704e-02 -1.875776e-01 -2.787466e-04 6.063827e-05 -9.224944e-04
-3.370590e-01 -2.695521e-01 -1.491567e-01 -9.862850e-04 -7.383159e-04 -1.324382e-03
-1.631226e-01 2.761840e-01 1.984687e-01 -9.595142e-05 1.757205e-04 1.324820e-03
4.704401e-01 -1.842206e-02 1.013889e-01 1.769079e-03 -1.265357e-04 1.021387e-03
-4.734712e-01 -1.069323e-01 7.040110e-02 -1.905246e-03 -4.144683e-04 7.632948e-04
1.210234e-01 1.057331e-01 1.428646e-01 -3.146377e-04 -3.146377e-04 4.783323e-04
4.510770e-01 9.930262e-02 1.154116e-01 1.515904e-03 3.297578e-04 1.234022e-03
-3.621966e-01 2.292436e-01 -1.525140e-01 -1.137118e-03 6.209088e-04 -1.392757e-03
-4.154938e-01 2.336714e-01 9.079373e-02 -1.556663e-03 8.499996e-04 1.021394e-03
1.277089e-01 4.670825e-01 7.506620e-02 4.052440e-04 1.862895e-03 7.463192e-04
6.934280e-02 3.487567e-01 -1.913056e-01 9.205210e-05 4.231683e-04 -1.400447e-03
-1.569394e-01 -5.526171e-02 -1.484601e-01 4.764703e-04 1.777118e-04 -5.466581e-04
8.004324e-02 -3.877104e-01 -1.747097e-01 1.573391e-04 -7.232980e-04 -1.533107e-03
3.942724e-01 2.476137e-01 1.115341e-01 1.508203e-03 8.235302e-04 9.895953e-04
-1.357271e-01 1.628101e-01 1.790877e-01 2.516634e-04 -3.361824e-04 8.697725e-04
-5.925586e-02 -4.844429e-01 -6.515216e-02 -1.390858e-04 -1.944808e-03 -7.633110e-04
3.823897e-02 4.950283e-01 2.982101e-02 1.476505e-04 2.064440e-03 4.711889e-04
2.212361e-01 4.460913e-01 1.570460e-02 1.019123e-03 1.866400e-03 1.589570e-04
3.672022e-01 -6.866319e-02 -1.855531e-01 6.746021e-04 -1.467491e-04 -1.429892e-03
5.556555e-03 1.708519e-01 -1.526061e-01 -3.627229e-05 -5.072427e-04 -5.466730e-04
-2.624832e-01 -3.785772e-01 -1.173098e-01 -9.297019e-04 -1.241920e-03 -1.234011e-03
5.432310e-02 9.941686e-02 7.091211e-02 -2.071608e-04 -3.794146e-04 1.692246e-04
-1.573385e-01 4.452988e-01 -9.852118e-02 -6.198244e-04 1.661809e-03 -1.021379e-03
2.761496e-01 -2.389738e-01 -1.885985e-01 3.754330e-04 -2.810461e-04 -1.516552e-03
4.247946e-02 -4.532896e-01 -1.238495e-01 1.062423e-04 -1.485406e-03 -1.184595e-03
4.530072e-01 1.686612e-01 -7.549647e-02 1.786216e-03 6.662259e-04 -7.463276e-04
-6.316990e-02 -8.467191e-02 -4.591229e-02 2.713312e-04 3.624453e-04 -1.030773e-04
3.357880e-01 -2.549221e-01 1.577570e-01 8.168188e-04 -6.114649e-04 1.492748e-03
9.781093e-02 -1.235768e-01 1.402629e-01 -2.666643e-04 3.562268e-04 4.783522e-04
-2.381422e-01 -1.241740e-01 1.970523e-01 1.425355e-04 7.782885e-05 1.074742e-03
-2.866433e-02 -2.122483e-01 1.800909e-01 2.640043e-05 3.691651e-04 7.665545e-04
-9.643677e-03 1.254439e-01 9.773556e-02 3.155686e-05 -4.413819e-04 2.548378e-04
-1.241331e-02 4.908943e-01 5.602587e-02 -1.456834e-04 2.036857e-03 4.648933e-04
-1.974837e-02 3.398813e-01 1.954694e-01 -1.562146e-05 2.184197e-04 1.449162e-03
-1.868574e-01 -3.130451e-02 1.661996e-01 4.115329e-04 8.952189e-05 6.161722e-04
4.733982e-01 -1.293102e-01 5.805850e-02 1.995387e-03 -4.340630e-04 4.648878e-04
2.071321e-02 4.935726e-01 -4.169095e-02 1.456688e-04 2.036857e-03 -4.648933e-04
-2.388514e-02 4.487139e-01 1.312548e-01 -1.062423e-04 1.485406e-03 1.184581e-03
1.935741e-01 -1.263892e-01 -1.875210e-01 -2.283726e-04 1.709545e-04 -9.225179e-04
1.012677e-01 -8.279097e-02 1.061952e-01 -3.542575e-04 2.651916e-04 2.548364e-04
3.641279e-02 -1.056153e-01 6.680153e-02 -1.510786e-04 4.050280e-04 1.692243e-04
1.907244e-01 1.989128e-01 -1.981092e-01 -1.281357e-04 -1.281357e-04 -1.199107e-03
-1.964682e-01 -9.715181e-02 -1.826222e-01 3.685608e-04 2.012542e-04 -8.697817e-04
8.322433e-02 -4.224739e-01 1.499534e-01 2.618863e-04 -1.203868e-03 1.324414e-03
4.417080e-01 -2.224454e-01 -3.953073e-02 1.792264e-03 -9.786489e-04 -4.648914e-04
-3.291445e-01 3.729559e-02 -1.968987e-01 -2.184443e-04 1.562321e-05 -1.449162e-03
-2.722513e-01 2.552993e-01 1.857323e-01 -4.881649e-04 4.881713e-04 1.429915e-03
-1.522945e-01 2.754337e-01 -1.993525e-01 -9.595142e-05 1.757205e-04 -1.324838e-03
2.732185e-01 -3.170261e-01 1.605290e-01 6.114565e-04 -8.168188e-04 1.492753e-03
3.753333e-01 3.109255e-01 -6.677455e-02 1.526159e-03 1.142473e-03 -7.462863e-04
-2.496604e-01 4.271058e-01 -3.853438e-02 -9.786489e-04 1.792264e-03 -4.648823e-04
-2.181532e-01 -4.437808e-01 -4.057475e-02 -9.786489e-04 -1.792264e-03 -4.648914e-04
3.836299e-01 -1.005223e-01 -1.745331e-01 7.232980e-04 -1.573391e-04 -1.533119e-03
-1.161917e-01 -3.489098e-01 -1.875981e-01 -1.638885e-04 -4.394017e-04 -1.516563e-03
2.806752e-01 3.790461e-01 9.949805e-02 1.062881e-03 1.419837e-03 1.021371e-03
-4.878778e-01 -1.788105e-02 6.393934e-02 -1.944808e-03 -1.390858e-04 7.633135e-04
