1.138506e-01 -4.552270e-01 1.040477e-01 3.770053e-04 -1.733070e-03 1.021380e-03
3.408368e-01 -2.854719e-01 1.374685e-01 1.037166e-03 -7.764181e-04 1.392747e-03
-4.804945e-01 -4.941119e-04 8.592120e-02 -1.901587e-03 -1.360189e-04 7.462906e-04
5.537808e-02 -4.726043e-01 9.306207e-02 1.265357e-04 -1.769079e-03 1.021397e-03
-4.346553e-01 -1.008238e-01 -1.351780e-01 -1.455176e-03 -3.165534e-04 -1.184588e-03
1.901714e-01 1.106005e-01 -1.830662e-01 -3.685750e-04 -2.012620e-04 -8.697817e-04
1.178582e-01 -2.243985e-02 -8.753009e-02 -4.324035e-04 9.407336e-05 -2.548346e-04
-1.191486e-01 -4.826265e-01 -2.410902e-02 -4.500040e-04 -2.068635e-03 -1.582386e-04
3.914859e-01 -2.738559e-01 -8.930110e-02 1.419865e-03 -1.062902e-03 -1.021390e-03
-4.809380e-01 -7.026409e-02 7.167369e-02 -1.862848e-03 -4.052313e-04 7.463414e-04
1.651388e-01 1.502561e-01 1.845645e-01 -2.969482e-04 -2.969482e-04 8.697811e-04
2.465791e-01 -2.333763e-01 1.956273e-01 1.548576e-04 -1.548576e-04 1.449172e-03
-1.462085e-01 4.386558e-02 -1.351801e-01 4.792238e-04 -1.787493e-04 -4.068483e-04
-4.790280e-01 1.075287e-01 5.423145e-02 -1.995387e-03 4.340630e-04 4.648878e-04
-1.376666e-01 8.360457e-02 1.433795e-01 3.905371e-04 -2.132522e-04 4.783375e-04
-1.094038e-01 1.815185e-01 -1.791226e-01 1.773777e-04 -3.248336e-04 -7.665614e-04
1.313764e-01 -2.781386e-01 1.994410e-01 000000 000000 1.212659e-03
1.609780e-01 -4.707233e-01 1.907486e-02 7.398172e-04 -1.983532e-03 1.582450e-04
2.794720e-01 -1.337229e-01 1.994410e-01 000000 000000 1.339803e-03
-3.759506e-01 -2.653253e-01 -1.178121e-01 -1.241920e-03 -9.296902e-04 -1.234018e-03
-1.976242e-01 2.951175e-01 -1.915657e-01 -2.810461e-04 3.754286e-04 -1.516549e-03
4.978066e-01 1.426053e-02 -1.565748e-02 2.121098e-03 1.517104e-04 -1.589659e-04
-3.415234e-01 3.576097e-01 3.919095e-02 -1.463507e-03 1.463507e-03 4.712049e-04
-3.719219e-01 1.900143e-01 -1.605523e-01 -8.955219e-04 4.889985e-04 -1.492746e-03
4.901467e-01 7.156924e-02 -4.008447e-02 2.022417e-03 4.399498e-04 -4.711673e-04
3.292917e-01 3.711498e-01 -3.512708e-02 1.443953e-03 1.443953e-03 -4.649089e-04
-7.814130e-02 -4.929484e-01 -5.789557e-03 -4.500040e-04 -2.068635e-03 -1.582386e-04
1.395500e-01 1.029150e-01 1.550034e-01 -4.071076e-04 -3.047563e-04 5.466755e-04
-3.759004e-01 2.198698e-02 -1.840537e-01 -6.886162e-04 4.924709e-05 -1.429901e-03
2.390364e-01 2.456301e-01 -1.951239e-01 1.548576e-04 1.548576e-04 -1.449172e-03
3.049072e-01 1.222322e-01 1.972868e-01 2.051936e-04 7.653435e-05 1.449168e-03
2.209111e-01 -4.278255e-01 8.066002e-02 9.136528e-04 -1.673261e-03 7.463149e-04
1.308176e-01 1.010107e-01 -1.474389e-01 -3.562268e-04 -2.666643e-04 -4.783491e-04
4.971562e-01 1.318139e-02 2.536560e-02 2.111619e-03 1.510248e-04 1.582554e-04
-1.343891e-01 1.404220e-01 1.696715e-01 3.397673e-04 -3.397673e-04 7.029813e-04
-7.748929e-02 4.873727e-01 -4.646401e-02 -4.399498e-04 2.022417e-03 -4.711673e-04
-2.613589e-01 4.036719e-01 -8.470239e-02 -1.168462e-03 1.560871e-03 -7.632685e-04
-2.900456e-01 -6.508147e-02 1.994408e-01 -4.210750e-09 1.434050e-08 1.339796e-03
4.921433e-01 7.975409e-02 -1.172895e-02 2.077921e-03 4.520161e-04 -1.589488e-04
-1.846193e-01 -1.699395e-01 -1.937071e-01 2.271083e-04 2.271039e-04 -1.038623e-03
4.944874e-01 -6.753788e-02 9.101261e-03 2.111619e-03 -1.510248e-04 1.582373e-04
-1.968101e-04 -1.062268e-01 -4.736385e-02 3.033734e-05 4.240088e-04 -9.677600e-05
-4.733322e-01 9.840581e-02 -7.537772e-02 -1.862848e-03 4.052367e-04 -7.463342e-04
-3.304408e-01 -2.808120e-01 1.478083e-01 -1.037166e-03 -7.764181e-04 1.392715e-03
-1.543558e-03 2.689388e-01 -1.970285e-01 1.291285e-05 -1.807485e-04 -1.199094e-03
2.579450e-01 -2.992470e-01 -1.755422e-01 4.137300e-04 -5.526712e-04 -1.429917e-03
3.446009e-01 8.178812e-03 1.947752e-01 4.319612e-04 3.089402e-05 1.400436e-03
-9.592918e-02 -4.882910e-01 1.609087e-02 -4.520161e-04 -2.077921e-03 1.589488e-04
7.369514e-02 1.413584e-01 -1.419758e-01 -2.132522e-04 -3.905371e-04 -4.783350e-04
-1.603488e-01 4.018561e-01 1.480509e-01 -4.527631e-04 1.213902e-03 1.392719e-03
4.592644e-02 2.083568e-01 1.799002e-01 -8.926603e-05 -4.103449e-04 8.697706e-04
-4.677896e-02 4.903572e-01 4.760995e-02 -1.476505e-04 2.064440e-03 4.712027e-04
3.001153e-01 3.100244e-01 -1.490938e-01 8.711754e-04 8.711754e-04 -1.324395e-03
2.899583e-01 -3.433562e-01 1.320569e-01 9.296902e-04 -1.241920e-03 1.234032e-03
-3.428032e-01 3.424794e-03 -1.952050e-01 -2.184443e-04 1.562321e-05 -1.449162e-03
-4.480380e-01 -2.129191e-01 -3.518085e-02 -1.816539e-03 -9.919087e-04 -4.711887e-04
4.768416e-02 -1.815337e-01 -1.650237e-01 -8.953030e-05 4.115414e-04 -6.161744e-04
1.050973e-01 1.346913e-01 -1.526018e-01 -3.047563e-04 -4.071076e-04 -5.466755e-04
2.788535e-01 2.226558e-01 1.909531e-01 3.754286e-04 2.810461e-04 1.516525e-03
4.139251e-01 2.180619e-01 1.061749e-01 1.508203e-03 8.235302e-04 9.895953e-04
2.692633e-01 -8.651651e-02 1.991679e-01 -1.697857e-04 6.332825e-05 1.199116e-03
2.736114e-01 4.071416e-01 5.877726e-02 1.223766e-03 1.634749e-03 4.649089e-04
-2.402378e-01 8.877787e-02 -1.951775e-01 1.521628e-04 -5.675447e-05 -1.074772e-03
-4.799424e-01 1.309454e-01 -2.564893e-02 -2.077921e-03 4.520161e-04 -1.589670e-04
1.534028e-01 -2.536891e-01 -1.994410e-01 000000 000000 -1.212634e-03
3.341971e-01 -2.274581e-01 -1.698776e-01 7.693174e-04 -5.759020e-04 -1.405935e-03
1.157838e-01 1.344024e-01 1.578196e-01 -2.523923e-04 -3.371573e-04 6.161639e-04
-2.339543e-01 -4.364118e-01 -3.572140e-02 -9.919087e-04 -1.816554e-03 -4.711994e-04
6.332936e-02 9.695102e-02 -7.672281e-02 -2.590740e-04 -3.460720e-04 -1.692279e-04
3.071397e-01 -3.348380e-01 1.253809e-01 1.053028e-03 -1.053028e-03 1.184597e-03
-5.063518e-02 9.983440e-02 6.733319e-02 2.071608e-04 -3.794146e-04 1.692330e-04
-3.624727e-01 -1.657389e-01 1.738887e-01 -6.059091e-04 -3.308519e-04 1.429903e-03
-2.032673e-02 -4.855708e-01 -6.937188e-02 -1.360110e-04 -1.901567e-03 -7.462960e-04
2.814583e-01 -3.237290e-01 1.523515e-01 8.711754e-04 -8.711652e-04 1.324387e-03
8.392867e-02 4.856472e-01 -4.785724e-02 4.340775e-04 1.995387e-03 -4.648704e-04
-3.823967e-01 -2.208073e-01 -1.397828e-01 -1.137118e-03 -6.209088e-04 -1.392724e-03
-4.463683e-01 6.370968e-02 1.306242e-01 -1.485417e-03 1.062423e-04 1.184570e-03
-3.647932e-01 2.204902e-01 -1.542964e-01 -1.081317e-03 5.904514e-04 -1.324385e-03
4.036114e-01 1.294932e-02 1.701114e-01 9.585485e-04 6.855795e-05 1.405958e-03
-2.026147e-01 9.952176e-02 -1.857756e-01 3.685750e-04 -2.012620e-04 -8.697836e-04
-4.418245e-01 1.798347e-01 -9.052227e-02 -1.661796e-03 6.198244e-04 -1.021386e-03
4.549460e-01 1.420331e-01 -9.211303e-02 1.661809e-03 6.198244e-04 -1.021379e-03
3.407649e-01 -6.655631e-02 -1.939036e-01 4.231683e-04 -9.205210e-05 -1.400447e-03
4.277447e-01 -1.352450e-01 -1.328086e-01 1.395312e-03 -5.204260e-04 -1.184578e-03
2.785963e-01 -2.966126e-01 -1.679057e-01 7.214876e-04 -7.214876e-04 -1.492764e-03
-2.460818e-01 -1.473810e-01 -1.994405e-01 000000 000000 -1.212660e-03
4.372487e-01 7.883296e-03 -1.441979e-01 1.292292e-03 9.242927e-05 -1.392748e-03
-3.956795e-01 2.239025e-01 1.245791e-01 -1.307054e-03 7.137000e-04 1.184593e-03
-1.327354e-01 1.891803e-01 1.876094e-01 1.709545e-04 -2.283682e-04 9.225059e-04
-1.462003e-01 -2.121552e-01 -1.953797e-01 9.733485e-05 1.300249e-04 -1.074760e-03
-2.310600e-01 -4.001859e-01 -1.152945e-01 -7.434740e-04 -1.361589e-03 -1.234017e-03
-2.943062e-01 4.012015e-01 -1.574071e-02 -1.274373e-03 1.702363e-03 -1.589827e-04
-2.494041e-01 -1.256394e-01 1.986520e-01 1.590279e-04 8.683463e-05 1.199095e-03
3.151205e-01 3.386447e-01 -1.149026e-01 1.096976e-03 1.096976e-03 -1.234037e-03
-2.030364e-01 3.786118e-01 -1.507956e-01 -5.904514e-04 1.081317e-03 -1.324418e-03
-1.303644e-01 -8.073093e-02 1.361365e-01 3.905371e-04 2.132522e-04 4.783350e-04
9.908467e-02 -2.706841e-01 -1.994410e-01 000000 000000 -1.212625e-03
4.519893e-01 1.898474e-01 5.902040e-02 1.826874e-03 6.813892e-04 7.633017e-04
3.812297e-01 2.966684e-02 -1.812227e-01 6.886162e-04 4.924709e-05 -1.429881e-03
-1.643491e-01 4.664820e-01 3.856507e-02 -7.232877e-04 1.939215e-03 4.711903e-04
1.001233e-01 8.648409e-03 9.899529e-03 -4.242197e-04 -3.034505e-05 3.179317e-05
-2.482511e-01 -9.365775e-02 -1.965697e-01 1.521628e-04 5.675224e-05 -1.074755e-03
4.963624e-01 -3.541306e-02 1.474006e-02 2.121098e-03 -1.517104e-04 1.589659e-04
-4.702264e-01 -1.649840e-01 -6.574885e-03 -1.992445e-03 -7.431408e-04 -1.589560e-04
-2.558104e-01 4.958353e-02 -1.958407e-01 1.587071e-04 -3.452567e-05 -1.074745e-03
9.152230e-02 -5.652904e-02 5.372607e-02 -3.730969e-04 2.037206e-04 9.678063e-05
-1.217305e-01 -4.705849e-01 -6.957008e-02 -4.144608e-04 -1.905212e-03 -7.632874e-04
1.856068e-01 3.208541e-01 -1.866571e-01 2.247559e-04 4.116089e-04 -1.516561e-03
3.480975e-01 -3.046063e-01 -1.158458e-01 1.053028e-03 -1.053028e-03 -1.184575e-03
-9.795496e-02 4.502460e-01 1.167925e-01 -3.297578e-04 1.515904e-03 1.234022e-03
3.583524e-01 -2.630995e-01 1.368967e-01 1.037166e-03 -7.764181e-04 1.392747e-03
3.461277e-02 9.733539e-02 -3.561108e-02 -1.485539e-04 -3.982905e-04 -9.678234e-05
4.424406e-01 -1.817576e-02 -1.386974e-01 1.292292e-03 -9.242927e-05 -1.392750e-03
2.999020e-01 3.596159e-01 -1.065006e-01 1.062902e-03 1.419865e-03 -1.021390e-03
-2.758394e-01 5.801366e-02 1.990689e-01 1.770704e-04 -3.850317e-05 1.199102e-03
-2.319616e-01 2.661352e-01 -1.923319e-01 -3.316096e-04 3.316140e-04 -1.516521e-03
1.293751e-01 3.357209e-01 1.899948e-01 1.638885e-04 4.394017e-04 1.516551e-03
-4.196988e-01 -2.706401e-01 -7.376788e-03 -1.702363e-03 -1.274373e-03 -1.589827e-04
-3.033321e-01 3.787221e-01 7.146923e-02 -1.168483e-03 1.560899e-03 7.632614e-04
1.796205e-01 -2.283651e-01 -1.994410e-01 000000 000000 -1.212653e-03
3.251356e-01 3.788088e-01 8.396854e-03 1.268680e-03 1.694747e-03 1.582656e-04
-2.790175e-01 1.493955e-01 -1.990871e-01 -1.757205e-04 9.595142e-05 -1.324820e-03
-4.438058e-01 -5.183014e-02 1.349029e-01 -1.485406e-03 -1.062423e-04 1.184581e-03
-2.353500e-01 -1.473404e-01 1.983596e-01 1.590279e-04 8.683463e-05 1.199095e-03
5.106100e-03 4.987532e-01 -1.176315e-02 1.510248e-04 2.111619e-03 -1.582554e-04
4.551727e-01 -3.019190e-02 -1.225901e-01 1.547396e-03 -1.106827e-04 -1.233997e-03
-6.927516e-05 -4.647733e-01 1.132531e-01 -1.106827e-04 -1.547396e-03 1.234017e-03
1.099037e-01 -9.440224e-02 1.254200e-01 -3.597071e-04 2.692749e-04 3.574153e-04
2.291417e-01 -1.322457e-01 -1.964433e-01 -1.590435e-04 8.684438e-05 -1.199083e-03
4.339918e-01 6.550005e-02 -1.429887e-01 1.265972e-03 2.753969e-04 -1.392737e-03
3.329885e-02 3.440955e-01 1.943769e-01 3.089402e-05 4.319612e-04 1.400447e-03
3.196846e-01 3.809100e-01 2.959309e-02 1.268680e-03 1.694747e-03 1.582656e-04
-6.640978e-02 3.190568e-01 1.976670e-01 -4.253953e-05 1.956167e-04 1.324826e-03
4.478923e-02 1.525890e-01 -1.412657e-01 -1.081052e-04 -4.969242e-04 -5.466738e-04
-4.624533e-01 -2.602109e-02 -1.138347e-01 -1.547396e-03 -1.106710e-04 -1.234017e-03
-2.341618e-01 3.460023e-01 -1.606719e-01 -6.114565e-04 8.168188e-04 -1.492741e-03
4.193278e-01 -1.196902e-01 1.456026e-01 1.203868e-03 -2.618863e-04 1.324419e-03
-3.813074e-01 -1.163527e-01 1.737137e-01 -6.935181e-04 -2.586637e-04 1.533115e-03
1.297152e-01 2.422123e-01 -1.979937e-01 -8.684661e-05 -1.590458e-04 -1.199103e-03
-2.801173e-01 -1.664968e-01 -1.977024e-01 -1.757007e-04 -9.594065e-05 -1.324838e-03
-1.825556e-01 4.306551e-01 1.070438e-01 -6.198124e-04 1.661777e-03 1.021393e-03
-2.496657e-01 2.334958e-01 1.952847e-01 -1.548576e-04 1.548598e-04 1.449182e-03
3.830121e-01 -2.926101e-01 -7.910934e-02 1.526159e-03 -1.142473e-03 -7.463208e-04
-4.787771e-01 -8.480194e-02 -6.917353e-02 -1.905212e-03 -4.144608e-04 -7.633150e-04
4.927290e-01 -4.408640e-02 -3.806295e-02 2.064440e-03 -1.476505e-04 -4.711673e-04
-4.210098e-01 1.240060e-01 1.431711e-01 -1.213902e-03 4.527631e-04 1.392740e-03
-7.164592e-02 -4.204332e-01 1.540980e-01 -2.618863e-04 -1.203868e-03 1.324419e-03
2.464020e-01 -9.175757e-02 1.962077e-01 -1.521798e-04 5.676084e-05 1.074767e-03
3.634379e-03 -4.992268e-01 6.848790e-03 1.510248e-04 -2.111619e-03 1.582554e-04
4.242767e-01 2.004281e-01 1.050731e-01 1.508203e-03 8.235302e-04 9.895953e-04
4.933886e-01 1.311054e-02 4.487883e-02 2.036857e-03 1.456834e-04 4.648933e-04
3.953283e-01 2.587776e-01 9.965132e-02 1.375648e-03 1.029798e-03 9.895818e-04
-1.226127e-01 -2.414088e-01 -1.973727e-01 7.783759e-05 1.425515e-04 -1.074766e-03
-3.966786e-01 1.936237e-02 1.741376e-01 -7.383302e-04 5.280736e-05 1.533131e-03
-2.389824e-01 -2.219611e-02 -1.903815e-01 2.845577e-04 2.033927e-05 -9.224981e-04
2.130997e-01 -4.008344e-01 -1.253998e-01 7.434857e-04 -1.361600e-03 -1.234033e-03
4.051261e-01 1.350729e-01 -1.534178e-01 1.154339e-03 4.305504e-04 -1.324384e-03
-4.971450e-01 -1.128719e-02 -2.732252e-02 -2.111619e-03 -1.510248e-04 -1.582373e-04
-1.747554e-01 4.650970e-01 2.518686e-02 -7.398172e-04 1.983532e-03 1.582450e-04
1.119531e-01 3.403053e-01 1.905492e-01 1.638885e-04 4.394017e-04 1.516551e-03
-7.885237e-02 -4.693205e-01 9.305233e-02 -3.770053e-04 -1.733070e-03 1.021405e-03
2.253706e-01 3.541437e-01 -1.596355e-01 4.889985e-04 8.955219e-04 -1.492746e-03
2.621932e-01 3.675009e-01 1.286756e-01 8.924493e-04 1.192164e-03 1.184595e-03
-2.866316e-02 9.624614e-02 -6.008776e-03 1.519488e-04 -4.073928e-04 -3.249471e-05
2.006803e-02 1.093931e-01 -6.546704e-02 -9.188145e-05 -4.224126e-04 -1.692325e-04
2.845253e-01 1.043590e-01 -1.994410e-01 000000 000000 -1.339803e-03
3.776874e-03 3.454078e-01 -1.946234e-01 3.089402e-05 4.319612e-04 -1.400436e-03
-2.381593e-01 -4.258701e-01 6.392832e-02 -9.344388e-04 -1.711299e-03 7.633003e-04
-1.139044e-01 2.923724e-01 -1.994410e-01 000000 000000 -1.339803e-03
4.093743e-01 2.047573e-01 -1.210033e-01 1.361589e-03 7.434857e-04 -1.234040e-03
-3.140205e-02 2.524396e-01 1.947356e-01 2.291741e-05 -3.203768e-04 1.038609e-03
-3.545893e-01 -3.346360e-01 -6.535588e-02 -1.378698e-03 -1.378684e-03 -7.632586e-04
-2.623753e-01 -2.468841e-01 1.898910e-01 -3.062265e-04 -3.062221e-04 1.400437e-03
1.140565e-01 4.008580e-01 1.616119e-01 2.042763e-04 9.390326e-04 1.405956e-03
-1.661533e-01 -1.897799e-01 -1.940076e-01 2.017164e-04 2.017120e-04 -9.224974e-04
-2.973493e-02 1.137504e-01 8.159231e-02 1.011179e-04 -4.647832e-04 1.862011e-04
7.188997e-02 -4.047227e-01 -1.651573e-01 2.168799e-04 -9.970160e-04 -1.492756e-03
9.135691e-02 8.372050e-02 -9.423921e-02 -3.519338e-04 -3.519338e-04 -2.866234e-04
4.317340e-01 -5.338752e-02 1.462949e-01 1.228886e-03 -8.789524e-05 1.324416e-03
-1.324699e-01 3.985425e-01 -1.590379e-01 -3.565721e-04 9.560058e-04 -1.492768e-03
4.430540e-01 -1.986171e-01 -7.257741e-02 1.826841e-03 -6.813769e-04 -7.632894e-04
2.565199e-01 -4.258439e-01 2.722182e-02 1.014577e-03 -1.858053e-03 1.582465e-04
3.206858e-01 -3.637343e-01 7.403525e-02 1.348058e-03 -1.348058e-03 7.463106e-04
-4.308807e-02 -9.019756e-02 -9.277383e-04 2.038156e-04 3.732769e-04 -3.179092e-05
3.126393e-01 2.357694e-01 1.767822e-01 5.925734e-04 4.435935e-04 1.533145e-03
-9.304987e-02 5.108702e-02 4.815981e-02 3.973726e-04 -2.169659e-04 1.030721e-04
4.671446e-01 -3.406709e-02 -1.051583e-01 1.714050e-03 -1.226032e-04 -9.895971e-04
4.655445e-01 9.421136e-02 9.379023e-02 1.733070e-03 3.770053e-04 1.021380e-03
-2.765039e-01 2.102518e-01 1.938335e-01 -3.466888e-04 2.595265e-04 1.400436e-03
-4.113203e-01 -3.459733e-02 -1.638000e-01 -9.585485e-04 -6.855795e-05 -1.405951e-03
1.452823e-01 7.239339e-02 1.445992e-01 -3.905371e-04 -2.132522e-04 4.783350e-04
4.646175e-01 1.564992e-01 -5.828842e-02 1.913307e-03 7.136270e-04 -4.648955e-04
1.960001e-01 2.077002e-01 1.994410e-01 000000 000000 1.212666e-03
2.003265e-01 -9.028978e-02 -1.827447e-01 -3.934709e-04 1.467555e-04 -8.697880e-04
9.988870e-02 -4.473120e-01 -1.198802e-01 3.297694e-04 -1.515904e-03 -1.234039e-03
3.140661e-01 4.457965e-02 -1.990930e-01 1.997022e-04 1.428211e-05 -1.324827e-03
4.447913e-01 -2.257631e-01 -1.944024e-03 1.866400e-03 -1.019138e-03 -1.589336e-04
-1.685083e-01 -3.984998e-01 -1.483237e-01 -4.527631e-04 -1.213892e-03 -1.392709e-03
8.254821e-02 -4.919951e-01 5.718874e-03 4.500040e-04 -2.068635e-03 1.582386e-04
3.984586e-01 -1.757569e-02 1.733419e-01 7.383302e-04 -5.280736e-05 1.533131e-03
1.366450e-01 6.984875e-03 -1.156637e-01 -4.481761e-04 -3.206433e-05 -3.574165e-04
-4.758553e-01 -1.481788e-01 1.458655e-02 -1.983532e-03 -7.398172e-04 1.582450e-04
-8.526332e-02 -1.536992e-01 1.569854e-01 2.018431e-04 3.696472e-04 6.161635e-04
-2.189075e-01 6.493714e-03 1.825342e-01 4.188791e-04 -2.996070e-05 8.697959e-04
8.299558e-02 1.276421e-01 -1.346786e-01 -2.692749e-04 -3.597071e-04 -3.574113e-04
-3.859117e-01 -2.887957e-01 7.901994e-02 -1.526162e-03 -1.142469e-03 7.462934e-04
2.180282e-01 -3.397269e-01 -1.706897e-01 4.605582e-04 -8.434489e-04 -1.405966e-03
-2.981355e-01 -2.302158e-01 1.839948e-01 -5.526571e-04 -4.137028e-04 1.429893e-03
-4.673743e-01 -1.112809e-02 1.076025e-01 -1.714017e-03 -1.226008e-04 9.895971e-04
3.029576e-01 3.960402e-01 -1.659747e-03 1.274373e-03 1.702363e-03 -1.589764e-04
4.878622e-02 4.847933e-01 -6.616700e-02 1.390858e-04 1.944808e-03 -7.633135e-04
-4.550405e-01 -2.056644e-01 6.737233e-03 -1.992445e-03 -7.431408e-04 1.589574e-04
-1.575115e-01 1.355030e-02 -1.407582e-01 4.438374e-04 -3.173825e-05 -4.783389e-04
4.555644e-01 -1.542461e-01 8.224523e-02 1.786248e-03 -6.662379e-04 7.463156e-04
-5.679849e-02 4.434951e-01 1.348469e-01 -1.062423e-04 1.485406e-03 1.184581e-03
1.352538e-02 -4.931536e-01 -4.577858e-02 1.476505e-04 -2.064440e-03 -4.711889e-04
-1.210277e-01 -4.735815e-01 6.247184e-02 -4.144544e-04 -1.905246e-03 7.632725e-04
5.809554e-02 1.315408e-01 -1.241551e-01 -1.787493e-04 -4.792238e-04 -4.068483e-04
2.546579e-01 1.080172e-04 1.947294e-01 -2.845439e-04 -2.035226e-05 9.225029e-04
-6.673826e-02 1.855913e-01 1.716479e-01 1.679135e-04 -4.502026e-04 7.029749e-04
2.044851e-01 1.696165e-01 -1.965725e-01 -1.300226e-04 -9.733485e-05 -1.074755e-03
2.647856e-01 3.060914e-01 1.699666e-01 5.759020e-04 7.693174e-04 1.405947e-03
-7.458171e-02 4.921593e-01 2.622882e-02 -4.500040e-04 2.068635e-03 1.582386e-04
8.443268e-02 -4.901470e-01 2.452077e-02 4.500040e-04 -2.068635e-03 1.582386e-04
3.688053e-01 1.872645e-01 -1.633226e-01 8.955219e-04 4.889985e-04 -1.492765e-03
-1.684810e-01 4.240749e-01 1.225294e-01 -5.421489e-04 1.453540e-03 1.234011e-03
3.617469e-01 1.521023e-01 1.765306e-01 6.935448e-04 2.586737e-04 1.533115e-03
4.952307e-02 -4.872376e-01 -5.980518e-02 1.390858e-04 -1.944808e-03 -7.632665e-04
4.837161e-01 -1.190876e-01 1.004057e-02 2.068635e-03 -4.500040e-04 1.582568e-04
2.039038e-01 7.216552e-02 1.813049e-01 -3.934709e-04 -1.467555e-04 8.697880e-04
1.181793e-01 4.519291e-01 -1.080458e-01 3.652726e-04 1.679167e-03 -9.896100e-04
-1.524089e-01 -2.582515e-01 -1.994410e-01 000000 000000 -1.339820e-03
-2.338592e-01 -4.356653e-01 3.879934e-02 -9.919087e-04 -1.816554e-03 4.711917e-04
-3.009040e-01 2.782460e-01 -1.660008e-01 -6.795261e-04 6.795261e-04 -1.405945e-03
-1.762723e-01 2.467939e-01 -1.994410e-01 000000 000000 -1.339812e-03
1.790254e-02 -4.281139e-01 -1.520088e-01 8.789524e-05 -1.228876e-03 -1.324406e-03
-1.232576e-01 3.711259e-01 1.771546e-01 -2.412615e-04 6.468463e-04 1.429869e-03
-1.709537e-02 -3.649562e-01 -1.882999e-01 -3.345347e-05 -4.677759e-04 -1.516560e-03
4.046952e-03 -4.819936e-01 8.145386e-02 1.360135e-04 -1.901587e-03 7.462906e-04
-2.591892e-01 2.168166e-01 1.959227e-01 -1.602799e-04 1.199822e-04 1.324845e-03
-2.695385e-02 -1.233644e-01 -9.853935e-02 9.407336e-05 4.324035e-04 -2.548346e-04
1.340924e-01 1.219140e-01 -1.605827e-01 -3.397673e-04 -3.397673e-04 -7.029813e-04
8.352851e-02 4.310716e-01 -1.420784e-01 2.753969e-04 1.265972e-03 -1.392704e-03
4.184250e-02 2.501703e-01 -1.945224e-01 -6.827256e-05 -3.138344e-04 -1.038611e-03
-1.118362e-01 -4.402668e-01 -1.253419e-01 -3.297578e-04 -1.515904e-03 -1.234015e-03
-3.862199e-01 -1.329824e-01 1.668070e-01 -9.004051e-04 -3.358270e-04 1.405974e-03
-4.627817e-01 8.485574e-02 -1.019312e-01 -1.679167e-03 3.652726e-04 -9.896170e-04
-2.973348e-01 1.791395e-01 1.939989e-01 -3.800938e-04 2.075445e-04 1.400440e-03
1.114757e-01 -1.622272e-01 1.712804e-01 -2.879468e-04 3.846587e-04 7.029696e-04
3.867816e-01 -2.589849e-01 1.113165e-01 1.375648e-03 -1.029811e-03 9.896051e-04
-2.637674e-01 4.226967e-01 -1.771032e-02 -1.014577e-03 1.858053e-03 -1.582710e-04
-9.432557e-02 1.656345e-01 1.671141e-01 2.302833e-04 -4.217202e-04 7.029688e-04
7.441191e-02 2.467679e-01 -1.953434e-01 -5.676084e-05 -1.521798e-04 -1.074772e-03
1.359219e-01 -1.180855e-01 -1.596166e-01 -2.978057e-04 2.978057e-04 -6.161626e-04
8.107982e-02 3.504790e-01 -1.900137e-01 9.968640e-05 4.582561e-04 -1.516560e-03
1.693736e-01 -5.871822e-02 -1.593460e-01 -3.946018e-04 1.471769e-04 -6.161555e-04
2.265983e-01 4.335945e-01 6.076332e-02 9.344388e-04 1.711299e-03 7.633003e-04
1.322047e-01 -1.777595e-02 -1.104538e-01 -4.964479e-04 3.551696e-05 -2.866213e-04
9.449510e-02 -3.582101e-02 1.752655e-02 -4.073928e-04 1.519488e-04 3.249471e-05
-2.461290e-01 1.631747e-01 1.994410e-01 000000 000000 1.339812e-03
-1.465846e-01 3.876825e-01 1.626212e-01 -3.565637e-04 9.560058e-04 1.492768e-03
-2.657309e-01 4.209202e-01 2.597881e-02 -1.019123e-03 1.866400e-03 1.589814e-04
1.772602e-01 -4.572551e-01 -5.672006e-02 7.136270e-04 -1.913293e-03 -4.649047e-04
-7.347390e-02 -3.669785e-01 1.851649e-01 -1.467491e-04 -6.746021e-04 1.429878e-03
-1.567251e-01 -1.158281e-01 -1.700525e-01 3.846587e-04 2.879468e-04 -7.029642e-04
4.907884e-01 -6.541468e-02 -3.988196e-02 2.064440e-03 -1.476505e-04 -4.711673e-04
-4.576782e-01 -1.641573e-01 -6.833788e-02 -1.826841e-03 -6.813769e-04 -7.632982e-04
1.102398e-01 -2.844629e-01 -1.994410e-01 000000 000000 -1.339789e-03
4.106848e-01 -9.919764e-03 -1.654367e-01 9.585485e-04 -6.855795e-05 -1.405958e-03
3.619985e-01 -1.742779e-01 1.716600e-01 8.434489e-04 -4.605498e-04 1.405935e-03
1.977285e-01 4.313253e-01 -9.657712e-02 8.235461e-04 1.508232e-03 -9.896112e-04
-2.517618e-01 -4.021510e-01 9.607407e-02 -8.235431e-04 -1.508203e-03 9.896096e-04
4.863661e-01 3.923245e-03 -7.033493e-02 1.944808e-03 1.390858e-04 -7.632665e-04
4.758653e-01 -3.673390e-02 8.972360e-02 1.769079e-03 -1.265357e-04 1.021387e-03
-2.029340e-01 -1.523304e-01 1.946454e-01 2.571124e-04 1.924742e-04 1.038618e-03
-8.158438e-02 -3.698881e-01 -1.829598e-01 -1.467491e-04 -6.746021e-04 -1.429892e-03
-2.020015e-01 -1.327018e-01 -1.907768e-01 2.571270e-04 1.924851e-04 -1.038623e-03
4.876342e-01 9.337979e-02 -3.050368e-02 2.022417e-03 4.399498e-04 -4.711673e-04
1.813796e-02 4.860914e-01 6.844458e-02 1.391022e-04 1.944843e-03 7.632665e-04
3.902786e-01 -3.091414e-01 -1.378376e-02 1.702363e-03 -1.274373e-03 -1.589479e-04
9.199665e-03 1.000853e-01 -9.919222e-03 -3.034505e-05 -4.242197e-04 -3.179317e-05
3.165810e-01 2.156364e-01 -1.810840e-01 5.925734e-04 4.435935e-04 -1.533121e-03
-4.056414e-01 -1.507375e-01 -1.478761e-01 -1.154349e-03 -4.305504e-04 -1.324394e-03
-3.761386e-01 2.664713e-01 1.167593e-01 -1.241920e-03 9.297019e-04 1.234023e-03
-4.011245e-01 2.956097e-01 -6.113127e-03 -1.702363e-03 1.274373e-03 -1.589479e-04
-5.195735e-04 -2.976996e-01 1.994410e-01 000000 000000 1.339804e-03
9.475373e-02 -3.993376e-01 1.654319e-01 2.168883e-04 -9.970160e-04 1.492763e-03
-6.522401e-02 8.426324e-02 -4.988244e-02 2.713312e-04 -3.624453e-04 -1.030780e-04
-1.521448e-01 -4.672996e-01 5.393438e-02 -7.136270e-04 -1.913307e-03 4.648955e-04
1.566207e-01 2.965819e-01 -1.962341e-01 1.049560e-04 1.922147e-04 -1.449189e-03
-1.667677e-01 -3.406732e-01 1.828884e-01 -3.547490e-04 -6.496738e-04 1.533126e-03
-8.752774e-02 4.189691e-01 -1.522884e-01 -2.618762e-04 1.203858e-03 -1.324375e-03
3.696423e-01 -2.566473e-01 -1.306986e-01 1.192164e-03 -8.924493e-04 -1.184582e-03
2.705358e-01 -3.822236e-01 1.056327e-01 1.029798e-03 -1.375648e-03 9.896084e-04
-2.206438e-01 9.928393e-02 -1.908366e-01 3.009270e-04 -1.122414e-04 -1.038612e-03
-1.485596e-01 -1.939413e-01 -1.917204e-01 1.924742e-04 2.571168e-04 -1.038628e-03
3.470697e-01 -3.429729e-01 -6.387987e-02 1.378684e-03 -1.378698e-03 -7.632586e-04
-7.177315e-02 -4.045716e-01 -1.652751e-01 -2.042763e-04 -9.390326e-04 -1.405950e-03
8.934215e-03 -3.915949e-01 -1.769450e-01 5.280735e-05 -7.383302e-04 -1.533131e-03
-5.588547e-02 4.948057e-01 -1.597432e-02 -1.510248e-04 2.111619e-03 -1.582373e-04
1.119856e-01 9.527951e-02 1.281762e-01 -4.094628e-04 -3.065158e-04 4.068509e-04
5.064923e-02 2.872033e-01 -1.994410e-01 000000 000000 -1.212647e-03
-1.240927e-01 5.417894e-02 -1.136613e-01 4.209962e-04 -1.570264e-04 -3.574168e-04
1.048255e-02 -1.026598e-01 3.495855e-02 -3.032277e-05 4.240088e-04 9.677600e-05
-2.083104e-01 -3.878660e-01 1.408886e-01 -6.209088e-04 -1.137118e-03 1.392724e-03
-1.493774e-01 1.209876e-01 -1.681453e-01 3.846587e-04 -2.879468e-04 -7.029696e-04
3.049196e-01 2.651151e-01 -1.704064e-01 7.214876e-04 7.214876e-04 -1.492764e-03
-9.769278e-02 8.441717e-02 -1.029180e-01 3.984398e-04 -2.982700e-04 -2.866263e-04
-1.969546e-01 4.566303e-01 2.752957e-02 -7.398172e-04 1.983532e-03 1.582450e-04
-3.211257e-01 2.432832e-01 1.705478e-01 -7.693174e-04 5.759020e-04 1.405947e-03
-3.522971e-03 -3.222019e-01 1.983093e-01 -1.562321e-05 -2.184443e-04 1.449170e-03
-4.821121e-01 -1.175759e-01 3.161331e-02 -2.022417e-03 -4.399498e-04 4.711857e-04
1.365948e-01 3.585383e-01 1.805987e-01 2.412615e-04 6.468463e-04 1.429890e-03
-1.956287e-01 6.383508e-02 -1.761558e-01 3.467590e-04 -1.293319e-04 -7.665604e-04
-9.765152e-02 3.976452e-02 -4.482003e-02 4.241982e-04 -1.582292e-04 -1.030728e-04
-3.060918e-01 3.005678e-01 -1.513830e-01 -8.711754e-04 8.711754e-04 -1.324395e-03
3.129587e-02 4.299251e-01 -1.494395e-01 8.789524e-05 1.228886e-03 -1.324413e-03
7.973183e-02 4.131983e-01 1.583570e-01 2.168883e-04 9.970160e-04 1.492764e-03
3.460953e-01 2.091896e-01 1.697645e-01 8.955219e-04 4.889985e-04 1.492746e-03
-2.220222e-01 4.357925e-01 6.143784e-02 -9.344388e-04 1.711299e-03 7.632657e-04
-1.741357e-01 4.540300e-01 6.816197e-02 -6.813892e-04 1.826874e-03 7.633017e-04
3.097793e-01 3.836985e-01 -4.600610e-02 1.240334e-03 1.656882e-03 -4.712033e-04
-2.912633e-01 -4.026589e-01 -2.452762e-02 -1.268680e-03 -1.694747e-03 -1.582220e-04
4.831799e-02 -2.280424e-01 1.882617e-01 -6.063827e-05 2.787510e-04 9.224961e-04
1.836127e-01 2.474772e-01 1.994410e-01 000000 000000 1.339812e-03
2.185730e-01 -4.466807e-01 -2.585846e-02 1.014577e-03 -1.858053e-03 -1.582710e-04
2.702961e-03 3.767488e-01 -1.843093e-01 4.924709e-05 6.886162e-04 -1.429901e-03
-2.415654e-01 3.816450e-01 1.294227e-01 -7.434740e-04 1.361589e-03 1.234017e-03
-4.895020e-01 -8.825855e-02 -2.207291e-02 -2.077906e-03 -4.520161e-04 -1.589476e-04
2.998490e-01 -3.974775e-01 1.118726e-02 1.274373e-03 -1.702363e-03 1.589764e-04
-4.923244e-01 5.867522e-02 3.526350e-02 -2.036857e-03 1.456834e-04 4.649071e-04
1.461964e-01 1.789180e-01 1.875635e-01 -1.709545e-04 -2.283682e-04 9.225002e-04
1.310496e-01 -3.235539e-01 -1.933390e-01 1.513424e-04 -4.057588e-04 -1.400449e-03
-1.329339e-01 -3.662233e-01 -1.777398e-01 -2.586737e-04 -6.935448e-04 -1.533115e-03
-9.622964e-02 -3.269567e-01 -1.955380e-01 -6.996694e-05 -1.875899e-04 -1.324854e-03
1.786565e-02 1.102313e-01 6.636367e-02 -1.011179e-04 -4.647832e-04 1.862121e-04
-3.459076e-01 2.414209e-01 -1.577502e-01 -8.168188e-04 6.114565e-04 -1.492753e-03
-4.478749e-01 2.672758e-02 1.320518e-01 -1.485417e-03 1.062423e-04 1.184570e-03
8.164128e-02 -5.916163e-02 -1.426395e-02 -3.404727e-04 2.548776e-04 -3.179094e-05
-3.792170e-02 2.135132e-01 -1.815112e-01 8.927591e-05 -4.103336e-04 -8.697805e-04
-9.527801e-02 -4.233086e-01 -1.468114e-01 -2.753969e-04 -1.265982e-03 -1.392752e-03
9.312550e-02 -4.057017e-02 -2.256467e-02 -4.073928e-04 1.519488e-04 -3.250182e-05
2.839250e-02 -3.135115e-01 1.993512e-01 1.428211e-05 -1.997022e-04 1.324834e-03
2.700566e-01 -1.861744e-01 1.973830e-01 1.753217e-04 -1.312434e-04 1.449194e-03
4.102202e-01 2.722914e-01 -5.142630e-02 1.656897e-03 1.240334e-03 -4.711815e-04
2.252364e-01 -1.058620e-01 -1.929986e-01 -2.503724e-04 1.367169e-04 -9.224883e-04
2.412692e-01 -1.899903e-01 -1.994410e-01 000000 000000 -1.339813e-03
-2.872723e-01 3.882671e-01 -7.653502e-02 -1.142473e-03 1.526159e-03 -7.462863e-04
-4.001056e-01 -2.961532e-01 -1.267053e-02 -1.702363e-03 -1.274373e-03 -1.589827e-04
9.334870e-03 -3.707660e-01 -1.866791e-01 3.345347e-05 -4.677759e-04 -1.516548e-03
7.006892e-02 1.178003e-01 1.158852e-01 -2.153358e-04 -3.943655e-04 3.574071e-04
-1.996959e-01 -1.158207e-01 -1.875421e-01 2.503866e-04 1.367247e-04 -9.225093e-04
-3.085978e-02 -1.083948e-01 6.883501e-02 9.187980e-05 4.224050e-04 1.692215e-04
-2.118694e-01 1.132246e-01 1.904618e-01 2.818875e-04 -1.539238e-04 1.038602e-03
4.584826e-01 -1.825759e-01 4.350870e-02 1.913307e-03 -7.136270e-04 4.648955e-04
2.816142e-02 2.176404e-01 1.826703e-01 -2.640044e-05 -3.691651e-04 7.665545e-04
2.275117e-01 -3.622545e-01 -1.532392e-01 5.904413e-04 -1.081317e-03 -1.324371e-03
-1.117636e-01 4.508454e-01 -1.122526e-01 -3.652726e-04 1.679167e-03 -9.895923e-04
-1.661072e-01 -6.233149e-03 -1.482485e-01 5.072427e-04 3.627229e-05 -5.466730e-04
3.605084e-01 -6.671793e-02 -1.879272e-01 4.582561e-04 -9.968640e-05 -1.516560e-03
2.275696e-01 -4.048546e-02 -1.876040e-01 -2.787466e-04 6.063827e-05 -9.224944e-04
4.285449e-01 4.720737e-02 -1.496641e-01 1.228886e-03 8.789524e-05 -1.324416e-03
-1.054648e-01 -9.937190e-03 -4.707800e-02 4.240088e-04 3.032277e-05 -9.677147e-05
-4.673228e-01 -8.187994e-02 9.532419e-02 -1.679167e-03 -3.652726e-04 9.896100e-04
2.037914e-01 2.755428e-01 1.951239e-01 1.312434e-04 1.753217e-04 1.449194e-03
1.306395e-01 -5.083903e-04 1.056032e-01 -4.964446e-04 3.551765e-05 2.866290e-04
1.655680e-02 1.025061e-01 -3.731838e-02 -9.035632e-05 -4.153681e-04 -9.677638e-05
1.694915e-01 3.136748e-01 1.909939e-01 2.247559e-04 4.116089e-04 1.516575e-03
8.343083e-02 1.047835e-01 -1.117485e-01 -2.982700e-04 -3.984398e-04 -2.866263e-04
-1.063719e-01 -1.468531e-01 1.607772e-01 2.523923e-04 3.371573e-04 6.161639e-04
3.980961e-01 -1.461245e-01 -1.559524e-01 1.154339e-03 -4.305504e-04 -1.324386e-03
-4.217107e-01 2.377672e-01 -7.373349e-02 -1.711268e-03 9.344220e-04 -7.632964e-04
-4.636584e-01 1.188500e-01 -8.789570e-02 -1.733103e-03 3.770126e-04 -1.021388e-03
2.354543e-02 4.974930e-01 1.098075e-02 1.517104e-04 2.121098e-03 1.589659e-04
1.374294e-02 -4.936600e-01 4.349191e-02 1.456688e-04 -2.036857e-03 4.648933e-04
-1.460774e-01 2.786101e-01 -1.993814e-01 -9.595142e-05 1.757205e-04 -1.324838e-03
8.255832e-02 6.324523e-02 -3.867877e-02 -3.402970e-04 -2.547492e-04 -9.677825e-05
-2.658427e-01 -1.779092e-01 -1.986409e-01 -1.752998e-04 -1.312287e-04 -1.449182e-03
-6.351667e-02 -1.996390e-01 -1.779164e-01 1.293368e-04 3.467724e-04 -7.665604e-04
3.533756e-01 3.160708e-01 -9.650138e-02 1.254159e-03 1.254159e-03 -1.021398e-03
-1.203843e-01 -1.598659e-01 1.735104e-01 2.217935e-04 2.962867e-04 7.665569e-04
-2.784286e-01 1.907469e-01 1.959561e-01 -1.753217e-04 1.312434e-04 1.449194e-03
6.816922e-02 3.111086e-01 -1.987843e-01 4.255894e-05 1.956365e-04 -1.324826e-03
4.929235e-01 -2.698438e-02 -4.256985e-02 2.036857e-03 -1.456688e-04 -4.648933e-04
2.967894e-02 -1.712869e-01 -1.552740e-01 -1.081052e-04 4.969242e-04 -5.466833e-04
-3.033902e-02 4.500541e-01 -1.289953e-01 -1.062423e-04 1.485406e-03 -1.184563e-03
-2.757055e-01 3.125010e-01 1.616236e-01 -6.795261e-04 6.795261e-04 1.405945e-03
-1.623875e-01 -1.558517e-01 -1.855355e-01 2.969481e-04 2.969417e-04 -8.697722e-04
1.003366e-01 4.374808e-01 1.318374e-01 3.165534e-04 1.455164e-03 1.184579e-03
-4.624042e-01 1.747025e-01 3.945506e-02 -1.939215e-03 7.232877e-04 4.711850e-04
3.298195e-01 -1.082072e-01 -1.939922e-01 4.057632e-04 -1.513424e-04 -1.400452e-03
-2.892849e-01 -3.558891e-01 -1.199510e-01 -9.297019e-04 -1.241920e-03 -1.234011e-03
7.304591e-02 4.937783e-01 -9.430879e-03 4.500040e-04 2.068635e-03 -1.582386e-04
9.230235e-02 3.958052e-01 1.681474e-01 2.042763e-04 9.390326e-04 1.405956e-03
1.238282e-01 4.633246e-01 8.655358e-02 4.052440e-04 1.862895e-03 7.463192e-04
-3.088102e-01 -3.284134e-01 1.296070e-01 -1.053028e-03 -1.053028e-03 1.184597e-03
-3.505936e-01 -7.173988e-02 1.905928e-01 -4.231923e-04 -9.205733e-05 1.400447e-03
4.685203e-01 1.288943e-01 -7.083331e-02 1.862848e-03 4.052367e-04 -7.463213e-04
-4.071384e-01 4.272662e-02 1.662547e-01 -9.585485e-04 6.855795e-05 1.405953e-03
-3.959321e-01 1.701227e-01 1.500368e-01 -1.154339e-03 4.305403e-04 1.324379e-03
-3.709624e-01 1.896352e-01 1.612520e-01 -8.955219e-04 4.889985e-04 1.492765e-03
2.074811e-01 -4.539037e-01 -1.216380e-02 1.019123e-03 -1.866400e-03 -1.589570e-04
4.066643e-02 -9.357720e-02 2.867655e-02 -1.519488e-04 4.073928e-04 3.250182e-05
-4.073564e-02 -3.725049e-01 -1.850432e-01 -4.924709e-05 -6.886162e-04 -1.429901e-03
-1.108314e-02 -4.128885e-01 1.638775e-01 -7.279284e-05 -1.017736e-03 1.492772e-03
1.893231e-01 7.845342e-02 -1.757699e-01 -3.467724e-04 -1.293368e-04 -7.665575e-04
4.059328e-01 -2.459877e-01 9.511582e-02 1.508203e-03 -8.235302e-04 9.895765e-04
2.025709e-02 -1.007809e-01 -3.336711e-02 -9.037089e-05 4.153681e-04 -9.678105e-05
4.156510e-01 -1.225855e-02 1.619368e-01 1.017736e-03 -7.279284e-05 1.492772e-03
-2.997069e-01 1.288288e-01 1.976746e-01 -1.875961e-04 6.995350e-05 1.324839e-03
3.699886e-01 -3.283382e-01 4.169618e-02 1.463507e-03 -1.463507e-03 4.711798e-04
-4.380277e-01 -5.058083e-02 -1.406414e-01 -1.228876e-03 -8.789524e-05 -1.324406e-03
2.731018e-01 1.534211e-01 1.994410e-01 000000 000000 1.339797e-03
-2.722390e-01 -2.907033e-02 1.978225e-01 1.807303e-04 1.291155e-05 1.199109e-03
-3.964238e-01 -2.491420e-01 1.069833e-01 -1.556693e-03 -8.500031e-04 1.021401e-03
-1.319151e-01 -4.800817e-01 2.107240e-02 -4.500040e-04 -2.068635e-03 1.582568e-04
-3.603934e-01 -2.085965e-01 -1.613811e-01 -8.955219e-04 -4.889985e-04 -1.492765e-03
-2.581861e-01 -4.265768e-01 7.933721e-03 -1.014577e-03 -1.858068e-03 1.582237e-04
-6.560931e-02 4.287521e-01 -1.477299e-01 -2.753969e-04 1.265982e-03 -1.392741e-03
-1.913573e-01 4.605899e-01 4.066518e-03 -7.431408e-04 1.992445e-03 1.589574e-04
-3.370655e-01 -3.340141e-01 9.449622e-02 -1.254122e-03 -1.254135e-03 1.021393e-03
2.456414e-01 4.180623e-01 7.227348e-02 9.136667e-04 1.673261e-03 7.463298e-04
1.474356e-01 -4.750402e-01 -2.827786e-02 7.398172e-04 -1.983532e-03 -1.582464e-04
3.500258e-01 1.676710e-02 -1.929124e-01 4.319612e-04 3.089402e-05 -1.400447e-03
-4.568641e-01 2.294483e-02 -1.211191e-01 -1.485417e-03 1.062423e-04 -1.184590e-03
-3.583331e-01 2.902192e-01 -1.167874e-01 -1.241920e-03 9.297019e-04 -1.234011e-03
4.455596e-01 -1.240586e-01 1.155740e-01 1.455176e-03 -3.165534e-04 1.184581e-03
-1.894494e-01 -2.559126e-01 1.987976e-01 -1.199822e-04 -1.602777e-04 1.324834e-03
-1.839179e-01 4.269221e-02 -1.658908e-01 4.695163e-04 -1.021423e-04 -7.029765e-04
1.947253e-01 -2.182884e-02 -1.706731e-01 -4.792742e-04 3.427477e-05 -7.029755e-04
4.519083e-01 1.816657e-01 -6.651773e-02 1.826841e-03 6.813769e-04 -7.632982e-04
8.937691e-02 6.426776e-02 6.267027e-02 -3.460657e-04 -2.590693e-04 1.692279e-04
-3.037372e-01 8.958078e-02 -1.991763e-01 -1.875730e-04 6.994491e-05 -1.324854e-03
1.495768e-02 4.794365e-01 8.598098e-02 1.360135e-04 1.901587e-03 7.463034e-04
-1.048460e-01 -1.246968e-02 4.516003e-02 4.515922e-04 3.230446e-05 1.030671e-04
2.996531e-01 -3.981316e-01 -5.753767e-03 1.274373e-03 -1.702363e-03 -1.589827e-04
3.407722e-02 1.025787e-01 5.636743e-02 -1.582292e-04 -4.241982e-04 1.030786e-04
2.088465e-01 -4.531183e-01 1.263146e-02 1.014577e-03 -1.858053e-03 1.582465e-04
-1.618147e-01 3.797421e-02 1.483043e-01 4.969242e-04 -1.080951e-04 5.466695e-04
-1.971181e-01 -2.958852e-01 1.914694e-01 -2.810461e-04 -3.754330e-04 1.516561e-03
-2.759604e-02 -3.943308e-01 1.749847e-01 -5.280736e-05 -7.383302e-04 1.533131e-03
3.755917e-01 1.374446e-01 -1.725479e-01 9.004051e-04 3.358355e-04 -1.405955e-03
2.186910e-01 -1.480409e-01 -1.963371e-01 -1.300249e-04 9.733485e-05 -1.074760e-03
9.899415e-02 -5.617611e-02 -7.223251e-02 -4.174596e-04 2.279506e-04 -1.861935e-04
-9.243481e-02 4.650273e-01 9.532323e-02 -3.769982e-04 1.733072e-03 1.021380e-03
1.330600e-01 -4.590624e-01 9.044942e-02 3.770053e-04 -1.733070e-03 1.021380e-03
4.860127e-01 -2.598857e-02 6.721446e-02 1.944843e-03 -1.391022e-04 7.632665e-04
5.504620e-02 -1.030226e-01 -7.988170e-02 -2.279506e-04 4.174596e-04 -1.862019e-04
-1.820091e-01 -1.653634e-01 1.921358e-01 2.017164e-04 2.017120e-04 9.224989e-04
-4.910800e-01 -3.428459e-02 4.835941e-02 -2.036857e-03 -1.456688e-04 4.648933e-04
2.441651e-01 4.348891e-01 -2.321628e-04 1.019123e-03 1.866400e-03 -1.589644e-04
-1.344808e-01 -2.935546e-01 1.982391e-01 -1.049560e-04 -1.922147e-04 1.449171e-03
-2.199803e-01 3.507273e-01 1.634509e-01 -4.889985e-04 8.955219e-04 1.492746e-03
3.061110e-01 -3.005695e-01 -1.513693e-01 8.711754e-04 -8.711754e-04 -1.324395e-03
-2.881472e-01 -2.801055e-01 -1.712677e-01 -6.795261e-04 -6.795261e-04 -1.405945e-03
1.070116e-01 -4.730732e-01 7.135142e-02 4.144683e-04 -1.905246e-03 7.632948e-04
-5.165973e-02 4.914255e-01 -4.140056e-02 -1.456688e-04 2.036857e-03 -4.648716e-04
1.549810e-01 -1.863926e-01 1.910418e-01 -1.924742e-04 2.571124e-04 1.038618e-03
3.661721e-01 -3.380239e-01 -1.049118e-02 1.496953e-03 -1.496953e-03 -1.582401e-04
-3.905951e-01 -2.897014e-01 -6.805557e-02 -1.560871e-03 -1.168462e-03 -7.632685e-04
-1.575005e-01 -4.712578e-01 2.863317e-02 -7.398172e-04 -1.983532e-03 1.582464e-04
4.423268e-02 3.311271e-01 1.965250e-01 1.428211e-05 1.997022e-04 1.324827e-03
-2.310073e-01 2.768623e-01 1.898983e-01 -2.810461e-04 3.754286e-04 1.516541e-03
-4.666466e-01 -1.554002e-01 -5.162468e-02 -1.939215e-03 -7.232877e-04 -4.711850e-04
-4.469862e-01 -2.176103e-01 2.844378e-02 -1.858053e-03 -1.014577e-03 1.582465e-04
4.720512e-01 -6.654881e-02 9.263605e-02 1.714017e-03 -1.226008e-04 9.896064e-04
-3.806727e-01 3.200215e-01 2.943346e-02 -1.694747e-03 1.268680e-03 1.582371e-04
4.935397e-01 7.294016e-02 1.285100e-02 2.068635e-03 4.500040e-04 1.582386e-04
5.242540e-02 3.845940e-01 -1.788186e-01 5.280735e-05 7.383302e-04 -1.533111e-03
-2.010300e-02 4.975750e-01 -1.317183e-02 -1.517104e-04 2.121098e-03 -1.589659e-04
1.923083e-01 -4.395762e-01 8.653299e-02 6.662379e-04 -1.786248e-03 7.463242e-04
-2.167398e-01 -4.225228e-02 1.834779e-01 4.103476e-04 8.927895e-05 8.697914e-04
4.756205e-01 7.283656e-02 8.354962e-02 1.862881e-03 4.052440e-04 7.463080e-04
2.760455e-01 1.221026e-02 1.982147e-01 -1.807485e-04 -1.292763e-05 1.199109e-03
-1.182537e-01 -4.661629e-01 8.249566e-02 -4.052440e-04 -1.862881e-03 7.463140e-04
2.254494e-01 3.143228e-01 1.791175e-01 4.435935e-04 5.925734e-04 1.533121e-03
1.554771e-01 5.134506e-02 -1.459124e-01 -4.764703e-04 -1.777118e-04 -5.466581e-04
1.257513e-01 -7.329898e-02 1.266045e-01 -3.943655e-04 2.153358e-04 3.574071e-04
-2.077735e-01 4.251338e-01 9.765409e-02 -8.235302e-04 1.508203e-03 9.895953e-04
2.379138e-01 2.963982e-01 -1.824390e-01 4.435935e-04 5.925734e-04 -1.533145e-03
1.904295e-01 -3.474841e-01 -1.745272e-01 3.547490e-04 -6.496738e-04 -1.533126e-03
3.032623e-01 -3.780935e-01 -7.286128e-02 1.142473e-03 -1.526159e-03 -7.462863e-04
-4.041224e-01 8.795426e-02 -1.632243e-01 -9.970160e-04 2.168799e-04 -1.492766e-03
-9.783760e-02 -1.828363e-01 -1.770047e-01 1.773777e-04 3.248336e-04 -7.665595e-04
-4.488074e-01 -9.143375e-02 1.203023e-01 -1.515904e-03 -3.297578e-04 1.234022e-03
-8.266457e-02 3.131153e-01 1.980223e-01 -4.655106e-05 2.139977e-04 1.449185e-03
2.916859e-01 1.094476e-01 1.994410e-01 000000 000000 1.339829e-03
-4.151052e-01 3.832754e-02 -1.610377e-01 -1.017736e-03 7.279284e-05 -1.492766e-03
-1.922086e-01 -4.399803e-01 8.565485e-02 -6.662379e-04 -1.786234e-03 7.463227e-04
5.410147e-03 -1.265151e-01 9.906662e-02 -3.155686e-05 4.413819e-04 2.548378e-04
-1.483517e-01 -3.084699e-01 -1.952562e-01 -1.049560e-04 -1.922147e-04 -1.449177e-03
-9.873188e-02 1.054793e-01 -1.252232e-01 3.616585e-04 -3.616585e-04 -4.068378e-04
2.774738e-01 -2.312779e-01 -1.896969e-01 3.754330e-04 -2.810461e-04 -1.516552e-03
9.609224e-02 -1.053475e-01 -1.227596e-01 -3.616585e-04 3.616585e-04 -4.068378e-04
2.426795e-01 -3.297923e-01 1.660528e-01 5.759020e-04 -7.693174e-04 1.405935e-03
-2.049389e-01 -3.675770e-01 -1.582698e-01 -4.889985e-04 -8.955219e-04 -1.492746e-03
2.687962e-01 1.335767e-01 1.994410e-01 000000 000000 1.212669e-03
3.993820e-01 -8.481450e-02 1.668464e-01 9.390326e-04 -2.042763e-04 1.405956e-03
-3.273985e-01 -2.849153e-01 -1.476637e-01 -9.161193e-04 -9.161193e-04 -1.392720e-03
4.547800e-01 -1.418831e-01 -9.247439e-02 1.610086e-03 -6.005382e-04 -9.896013e-04
3.440075e-01 -2.667524e-01 1.455429e-01 9.862850e-04 -7.383261e-04 1.324414e-03
-4.844817e-01 5.023911e-02 6.669591e-02 -1.944843e-03 1.391022e-04 7.632665e-04
-2.970003e-02 -4.309119e-01 1.486297e-01 -8.789524e-05 -1.228886e-03 1.324416e-03
9.679008e-02 -2.718380e-02 -8.175546e-03 -4.248606e-04 9.242125e-05 -3.249439e-05
-4.517037e-01 1.804691e-01 -6.807574e-02 -1.826841e-03 6.813769e-04 -7.633017e-04
3.853902e-01 -1.442731e-01 1.646414e-01 9.559974e-04 -3.565637e-04 1.492763e-03
2.289015e-02 1.757756e-01 -1.578053e-01 -3.427477e-05 -4.792742e-04 -7.029755e-04
-4.110208e-03 1.131403e-01 7.054152e-02 3.084457e-05 -4.311839e-04 1.692241e-04
-1.499181e-03 -1.151680e-01 7.523186e-02 3.391928e-05 4.744248e-04 1.861945e-04
-4.270732e-01 -3.721966e-02 -1.516925e-01 -1.228876e-03 -8.789524e-05 -1.324406e-03
6.126490e-02 8.248299e-02 -3.320106e-02 -2.547492e-04 -3.402970e-04 -9.677893e-05
-2.798828e-01 3.340966e-01 1.456038e-01 -7.764181e-04 1.037166e-03 1.392715e-03
-1.227774e-02 -1.026040e-01 3.527803e-02 3.033734e-05 4.240088e-04 9.677921e-05
-4.454906e-01 -1.869957e-01 -7.711971e-02 -1.786216e-03 -6.662259e-04 -7.463276e-04
-4.396930e-01 -2.119705e-01 6.499845e-02 -1.673231e-03 -9.136364e-04 7.463313e-04
-2.818615e-01 3.742944e-01 -1.048692e-01 -1.029818e-03 1.375675e-03 -9.896002e-04
7.852407e-02 -2.465560e-01 -1.955306e-01 -5.675861e-05 1.521776e-04 -1.074748e-03
1.234673e-01 -2.143112e-01 -1.926424e-01 -1.539238e-04 2.818919e-04 -1.038622e-03
3.227571e-01 -2.563811e-01 -1.642900e-01 8.168188e-04 -6.114565e-04 -1.492753e-03
2.783357e-01 -2.949271e-01 1.688462e-01 6.795261e-04 -6.795261e-04 1.405945e-03
-4.421807e-02 -4.564897e-01 -1.196805e-01 -1.106827e-04 -1.547396e-03 -1.233997e-03
-3.888703e-01 1.859374e-01 1.500430e-01 -1.137118e-03 6.209088e-04 1.392724e-03
-2.137361e-01 3.962927e-01 -1.300276e-01 -7.137000e-04 1.307054e-03 -1.184593e-03
-3.522987e-01 -3.869698e-02 1.917275e-01 -4.678004e-04 -3.346950e-05 1.516560e-03
3.941648e-01 2.394000e-01 1.169133e-01 1.361589e-03 7.434740e-04 1.234017e-03
-3.532083e-01 3.514477e-01 6.142201e-03 -1.503675e-03 1.503660e-03 1.589499e-04
-1.370063e-01 -4.388748e-01 1.189247e-01 -5.421489e-04 -1.453540e-03 1.234012e-03
-4.910536e-01 -1.755434e-02 5.371717e-02 -2.036857e-03 -1.456688e-04 4.648933e-04
1.621828e-01 3.137047e-01 -1.920689e-01 2.075445e-04 3.800938e-04 -1.400454e-03
8.975536e-02 -1.570422e-01 1.604624e-01 -2.018431e-04 3.696472e-04 6.161715e-04
9.459810e-02 -4.600354e-01 1.029951e-01 3.652656e-04 -1.679134e-03 9.896100e-04
-2.509045e-01 -1.972783e-01 1.986944e-01 -1.602699e-04 -1.199563e-04 1.324856e-03
3.406783e-01 -2.101992e-01 -1.726835e-01 8.434489e-04 -4.605582e-04 -1.405960e-03
-2.312566e-02 -4.082540e-01 -1.664499e-01 -6.855795e-05 -9.585485e-04 -1.405958e-03
-9.755659e-02 -6.054654e-02 -7.435985e-02 3.794146e-04 2.071608e-04 -1.692246e-04
6.852140e-02 -1.213670e-01 -1.188884e-01 -2.153358e-04 3.943655e-04 -3.574071e-04
9.943838e-02 -2.019794e-01 1.854871e-01 -2.012620e-04 3.685750e-04 8.697836e-04
2.138064e-01 -2.561086e-02 -1.807360e-01 -4.188791e-04 2.996070e-05 -8.697848e-04
-1.880505e-01 3.398638e-03 1.652238e-01 4.792742e-04 -3.427477e-05 7.029792e-04
3.094758e-01 1.599173e-01 -1.935524e-01 3.800938e-04 2.075445e-04 -1.400440e-03
-4.512377e-01 -1.218239e-04 1.302213e-01 -1.485406e-03 -1.062423e-04 1.184581e-03
2.237377e-01 1.186779e-01 -1.944910e-01 -2.818875e-04 -1.539238e-04 -1.038618e-03
3.413063e-01 -4.721707e-02 -1.949302e-01 4.319612e-04 -3.089402e-05 -1.400436e-03
1.264099e-01 3.262591e-01 -1.930566e-01 1.513424e-04 4.057588e-04 -1.400438e-03
4.134834e-01 -2.232564e-01 -1.025252e-01 1.508232e-03 -8.235461e-04 -9.896112e-04
1.125540e-01 4.819424e-01 3.703062e-02 4.399498e-04 2.022417e-03 4.712020e-04
4.172398e-01 7.385402e-02 -1.565117e-01 9.970160e-04 2.168799e-04 -1.492763e-03
-4.306861e-02 -1.040558e-01 -6.901092e-02 1.662186e-04 4.456612e-04 -1.862047e-04
6.161467e-02 -4.942009e-01 1.857760e-02 1.517104e-04 -2.121098e-03 1.589477e-04
4.445892e-01 -1.624853e-01 -9.655243e-02 1.661809e-03 -6.198244e-04 -1.021405e-03
3.776727e-02 3.086392e-01 1.994410e-01 000000 000000 1.339804e-03
-3.378215e-01 -9.171790e-02 1.931391e-01 -4.582602e-04 -9.967270e-05 1.516560e-03
1.357077e-01 -2.371908e-01 -1.977616e-01 -8.684438e-05 1.590458e-04 -1.199108e-03
3.754492e-01 3.065180e-01 7.328467e-02 1.560899e-03 1.168483e-03 7.632894e-04
9.951837e-02 6.453743e-02 8.382207e-02 -3.460657e-04 -2.590693e-04 1.692279e-04
1.195572e-01 -3.977153e-01 1.626518e-01 3.358270e-04 -9.004051e-04 1.405947e-03
3.658081e-01 -3.331916e-01 -3.960591e-02 1.443938e-03 -1.443953e-03 -4.648816e-04
-9.137929e-02 4.529480e-01 -1.152304e-01 -3.297578e-04 1.515904e-03 -1.234005e-03
3.850262e-01 -3.031446e-01 5.880286e-02 1.634763e-03 -1.223766e-03 4.648904e-04
1.450480e-01 3.281998e-01 1.904802e-01 1.513424e-04 4.057588e-04 1.400449e-03
7.643492e-02 -3.828451e-01 1.773754e-01 1.573456e-04 -7.232980e-04 1.533095e-03
-1.602519e-01 2.172245e-01 1.972656e-01 9.733485e-05 -1.300226e-04 1.074747e-03
-4.071141e-01 -2.843327e-01 3.065120e-02 -1.656897e-03 -1.240334e-03 4.712058e-04
4.290703e-03 1.146102e-01 -7.431996e-02 -3.084512e-05 -4.311917e-04 -1.692241e-04
-4.295940e-01 -8.389662e-02 -1.433484e-01 -1.265982e-03 -2.753969e-04 -1.392748e-03
-4.289237e-01 1.837282e-01 1.091491e-01 -1.610055e-03 6.005266e-04 9.896037e-04
-2.640947e-01 -4.215051e-01 -2.960375e-02 -1.014577e-03 -1.858068e-03 -1.582475e-04
3.649006e-01 -1.000188e-01 -1.834209e-01 7.232980e-04 -1.573391e-04 -1.533119e-03
2.934787e-01 -2.558156e-01 -1.783090e-01 4.881649e-04 -4.881713e-04 -1.429895e-03
-1.155412e-01 4.432796e-01 1.206508e-01 -3.297578e-04 1.515904e-03 1.234022e-03
1.920704e-01 -3.822961e-01 1.526763e-01 5.904514e-04 -1.081317e-03 1.324385e-03
9.274808e-02 3.686190e-02 4.952601e-04 -3.984800e-04 -1.486401e-04 3.178413e-05
3.157034e-01 9.351573e-02 -1.972747e-01 2.051936e-04 7.653435e-05 -1.449183e-03
1.682866e-01 -4.622068e-01 5.011565e-02 7.136270e-04 -1.913293e-03 4.648870e-04
4.251893e-01 -2.060307e-01 -9.901978e-02 1.508232e-03 -8.235461e-04 -9.896112e-04
-4.897527e-01 2.788781e-02 -5.617917e-02 -2.036857e-03 1.456688e-04 -4.648933e-04
2.850962e-02 2.345082e-01 1.891409e-01 -2.035226e-05 -2.845439e-04 9.224950e-04
-1.970822e-01 3.773613e-02 1.737405e-01 3.616351e-04 -7.867299e-05 7.665633e-04
-3.079746e-01 3.825464e-01 -5.480762e-02 -1.223766e-03 1.634749e-03 -4.649089e-04
-2.938625e-01 -3.873270e-01 -6.836858e-02 -1.168462e-03 -1.560885e-03 -7.633146e-04
-3.401917e-01 3.534860e-01 5.613476e-02 -1.443953e-03 1.443953e-03 4.649089e-04
4.048149e-01 -1.612682e-01 -1.451732e-01 1.213902e-03 -4.527631e-04 -1.392730e-03
-1.788526e-01 -2.065280e-01 -1.976560e-01 1.085939e-04 1.450666e-04 -1.199095e-03
-3.837238e-01 -2.384044e-01 -1.290335e-01 -1.307054e-03 -7.137000e-04 -1.184593e-03
3.100213e-01 -3.642565e-01 8.951877e-02 1.062894e-03 -1.419837e-03 1.021367e-03
-4.608186e-01 -1.887245e-01 1.350796e-02 -1.992445e-03 -7.431408e-04 1.589574e-04
2.000010e-02 4.970935e-01 -1.969598e-02 1.510248e-04 2.111619e-03 -1.582554e-04
3.601228e-01 3.451479e-01 -3.285019e-04 1.503675e-03 1.503675e-03 -1.589758e-04
2.145035e-01 -1.309932e-01 1.938101e-01 -2.818875e-04 1.539238e-04 1.038602e-03
-1.706682e-01 4.075977e-01 -1.396916e-01 -4.527631e-04 1.213902e-03 -1.392721e-03
-3.298685e-01 2.630745e-01 -1.576570e-01 -8.168188e-04 6.114565e-04 -1.492753e-03
-2.018345e-02 3.359417e-01 -1.960586e-01 -1.562321e-05 2.184443e-04 -1.449170e-03
-1.225130e-01 5.253835e-03 -9.211609e-02 4.413734e-04 -3.155625e-05 -2.548378e-04
-1.411462e-01 -4.754819e-01 3.714272e-02 -7.232877e-04 -1.939215e-03 4.711850e-04
4.857249e-01 -9.394666e-02 3.816913e-02 2.022417e-03 -4.399498e-04 4.712020e-04
