-4.809065e-02 -7.861321e-02 -1.104715e-01 4.868047e-05 1.104757e-04 -4.481134e-05
2.053487e-01 6.490893e-02 5.249530e-02 8.085258e-05 -1.475731e-04 3.044063e-06
-2.132154e-02 -1.156151e-01 -1.523772e-01 4.371436e-06 5.565086e-05 -7.143099e-05
-9.880028e-02 1.364797e-01 1.683144e-01 1.175866e-05 1.610295e-05 1.270241e-04
-3.815871e-02 7.517748e-02 8.439258e-02 4.296462e-05 -1.074685e-04 1.983484e-05
-4.424389e-01 1.221407e-02 1.518998e-01 -5.774662e-05 -3.681415e-06 9.930832e-05
-4.483246e-01 1.522216e-01 8.715485e-02 -1.001303e-04 6.115318e-05 3.235471e-05
3.848330e-01 1.862155e-01 1.226280e-01 4.877864e-05 8.842481e-05 7.086439e-05
3.253727e-01 -2.293678e-01 1.951602e-02 1.726891e-05 -1.194439e-04 5.206035e-06
-2.573576e-01 -1.123259e-01 1.423376e-01 -9.200697e-06 8.954524e-05 8.141617e-05
2.062693e-01 1.860470e-01 1.514525e-01 -2.355974e-06 8.662640e-05 9.541494e-05
1.306678e-01 -1.658087e-01 -1.612164e-01 -1.853600e-06 -6.804187e-05 -1.262563e-04
-2.889469e-01 2.285445e-01 5.391899e-02 -3.969634e-06 1.109258e-04 1.433589e-05
4.940192e-01 -2.275218e-02 5.465651e-02 1.033614e-04 -6.511568e-06 1.468365e-05
-2.642601e-02 -2.155336e-01 5.987823e-02 7.809565e-06 -1.484698e-04 2.260930e-05
2.054196e-01 -2.279750e-01 -3.976560e-02 -9.422836e-06 -1.134571e-04 -1.455535e-05
1.710135e-01 1.070328e-01 -1.617723e-01 1.333861e-05 -3.681128e-05 -7.300528e-05
2.301496e-01 8.929083e-02 1.110363e-01 3.671081e-05 -1.444207e-04 5.221736e-05
3.032572e-02 -1.440734e-01 -1.621253e-01 2.372748e-06 2.131755e-06 -1.306988e-04
-2.763368e-03 8.309578e-02 8.632071e-02 8.240375e-06 -1.066247e-04 2.187877e-05
-3.271576e-01 -1.936337e-01 1.382150e-01 -1.754504e-05 -8.848270e-05 7.803010e-05
-1.943255e-01 -1.525387e-01 -1.644430e-01 -5.720260e-06 -1.427437e-05 -1.225929e-04
-4.685145e-01 5.729619e-02 -1.202501e-01 -1.101758e-04 1.549747e-05 -6.641927e-05
3.503376e-01 -2.746023e-02 1.234862e-01 -1.502763e-04 3.351898e-05 1.034598e-04
3.636241e-01 2.219748e-01 2.654069e-02 3.344540e-05 1.091097e-04 5.126230e-06
-3.126404e-01 -1.999779e-01 -1.328526e-01 -1.441893e-05 -9.225278e-05 -6.107472e-05
1.670214e-01 2.165320e-01 8.818459e-02 -9.259639e-06 1.120988e-04 2.652035e-05
-5.411121e-02 -8.823571e-02 -1.343317e-01 6.638393e-05 7.555337e-05 -6.320462e-05
-1.288475e-01 -2.233045e-01 1.640515e-02 6.096977e-06 -9.740930e-05 4.010364e-06
-4.277816e-01 1.932498e-01 -1.479235e-03 -5.478487e-05 5.821826e-05 -3.681028e-06
3.020255e-01 -2.304347e-01 -3.566498e-02 3.358077e-06 -9.034254e-05 -1.153151e-05
-3.273219e-01 1.551503e-04 4.345463e-02 1.234019e-04 7.833764e-06 6.622665e-06
-4.282521e-01 6.868819e-02 1.551439e-01 -3.316978e-05 1.132829e-05 8.193584e-05
-1.928954e-01 -1.465078e-01 1.654725e-01 -1.967158e-05 -2.947651e-06 1.226388e-04
1.610078e-01 1.512693e-01 1.666175e-01 7.513647e-07 2.410272e-05 1.035475e-04
-2.420352e-01 -1.556459e-01 1.623785e-01 -2.874596e-06 -8.657732e-06 1.371551e-04
-2.158182e-01 7.646835e-02 8.267277e-02 -4.381356e-05 -9.850114e-05 2.280413e-05
2.279893e-01 7.881783e-02 -7.477247e-02 4.345368e-05 -1.485392e-04 -3.503018e-05
-8.393079e-02 1.957753e-01 1.317615e-01 3.493309e-06 1.284659e-04 8.708471e-05
7.492547e-02 -3.237230e-02 8.515675e-02 -1.149383e-04 2.458191e-05 1.725938e-05
3.553409e-02 7.222407e-02 -6.467297e-02 -3.679486e-05 -8.178681e-05 -1.028904e-05
1.938292e-01 2.249400e-01 5.567193e-02 -7.270891e-06 8.728218e-05 1.124416e-05
2.320983e-01 7.395527e-02 -3.081652e-02 3.919974e-05 -1.602880e-04 -1.965042e-05
-4.451381e-01 -4.749308e-02 1.483301e-01 -5.295128e-05 -1.534528e-05 8.808168e-05
-3.010572e-01 1.929265e-01 1.430193e-01 -9.013759e-06 6.403638e-05 6.736273e-05
3.368424e-01 -6.871469e-02 1.285779e-01 -8.207580e-05 6.039185e-05 7.584539e-05
-4.805908e-01 -4.136107e-02 -1.010523e-01 -1.402991e-04 -9.756619e-06 -5.839444e-05
3.372485e-01 -2.161291e-01 -9.116137e-02 1.785932e-05 -9.892135e-05 -2.936473e-05
-3.545492e-01 -2.209454e-01 5.775340e-02 -2.856215e-05 -9.439060e-05 1.371755e-05
-7.484923e-02 -3.430884e-02 8.911900e-02 1.221041e-04 3.817245e-05 2.675852e-05
-4.483455e-01 -2.638369e-02 1.478183e-01 -6.912961e-05 -3.832427e-06 8.054613e-05
-2.204043e-01 2.302986e-01 2.045479e-02 7.217419e-06 1.008691e-04 4.409516e-06
2.850811e-01 -2.278893e-01 -6.008689e-02 3.529102e-06 -9.759180e-05 -1.320334e-05
4.891635e-01 -6.841683e-02 -4.863652e-02 9.350555e-05 -1.851376e-05 -1.364445e-05
-4.378980e-01 -1.588164e-01 -9.972885e-02 -8.316181e-05 -7.857045e-05 -6.214462e-05
3.638121e-01 -1.589213e-01 -1.536144e-01 2.958888e-05 -5.449368e-05 -1.279363e-04
2.655515e-01 9.644122e-02 -1.193027e-01 -1.407384e-05 -1.562479e-04 -8.651049e-05
-4.897212e-01 -1.837766e-02 -7.688854e-02 -1.323440e-04 -8.333461e-06 -3.425841e-05
4.223736e-01 1.360741e-01 1.394231e-01 6.935579e-05 4.027195e-05 8.845291e-05
2.965511e-01 6.854663e-02 -5.949875e-02 -5.019578e-05 -7.235022e-05 -8.907701e-06
2.489366e-01 2.194601e-01 -9.762674e-02 -1.339059e-06 8.735466e-05 -3.141824e-05
4.617241e-01 1.523426e-01 1.921257e-02 1.058050e-04 6.464216e-05 5.911599e-06
-4.674552e-01 -1.042724e-01 9.789465e-02 -1.233395e-04 -4.583917e-05 5.568294e-05
1.267566e-01 6.841809e-03 1.628239e-01 2.756293e-05 -2.564066e-06 8.786145e-05
-1.664918e-01 -2.261277e-01 -1.523584e-02 1.209443e-05 -1.445524e-04 -5.819961e-06
2.209041e-01 -1.672875e-01 -1.613263e-01 -6.250627e-06 -3.610238e-05 -1.311261e-04
2.368277e-01 -2.236610e-01 -7.878986e-02 -3.404031e-06 -1.045230e-04 -2.451291e-05
-4.682540e-01 -3.759581e-02 -1.253186e-01 -1.007911e-04 -6.523818e-06 -7.054838e-05
3.268713e-01 1.010294e-01 1.466307e-01 -4.672335e-05 -6.920872e-05 8.437324e-05
-2.429258e-01 -1.249197e-01 -1.544055e-01 -1.342761e-05 4.807487e-05 -8.691987e-05
-2.285365e-01 -2.000829e-01 1.378384e-01 6.724055e-06 -1.080265e-04 7.427988e-05
3.143738e-01 -4.852818e-02 5.294380e-02 -1.210374e-04 8.945334e-05 3.949548e-05
-3.543123e-01 2.057219e-01 -1.083877e-01 -3.198443e-05 1.037955e-04 -4.482380e-05
1.744299e-01 -2.265980e-01 2.069200e-02 -5.786418e-06 -6.919762e-05 2.784405e-06
4.865032e-01 9.456284e-02 2.711259e-02 9.084150e-05 3.215510e-05 6.328301e-06
-2.204988e-01 7.772228e-02 -7.926836e-02 -2.691909e-05 -8.729246e-05 -2.302564e-05
3.842957e-01 -2.095512e-01 6.931403e-02 4.382632e-05 -1.428994e-04 3.781923e-05
4.787992e-01 -8.441486e-02 -8.237096e-02 8.564219e-05 -1.779473e-05 -2.299150e-05
3.634898e-01 2.230758e-01 3.926002e-03 3.486568e-05 1.135256e-04 5.266153e-06
3.288028e-01 -4.535034e-03 -4.948250e-02 -1.484998e-04 1.183466e-05 -2.135148e-05
1.287352e-01 -5.507155e-02 1.645507e-01 2.371362e-05 2.328327e-05 1.824685e-04
-3.135216e-01 6.341530e-02 8.484006e-02 9.284911e-05 -1.051863e-04 4.342772e-05
-1.751894e-01 2.963183e-02 -7.802675e-02 -1.291466e-04 -2.211853e-05 -2.139356e-05
-1.252756e-01 2.090960e-02 1.623849e-01 7.086492e-06 -1.080827e-06 1.174632e-04
-2.458592e-01 -2.269513e-01 -6.413927e-02 3.962042e-06 -1.152366e-04 -1.544246e-05
4.807110e-01 1.104811e-01 -2.676498e-02 8.357983e-05 3.053003e-05 -4.158388e-06
2.950937e-01 2.317955e-01 1.244342e-02 3.231099e-06 9.017470e-05 3.766702e-06
-1.065317e-01 -6.103614e-02 1.612179e-01 5.020564e-05 1.835298e-05 8.748086e-05
7.358206e-02 -1.313155e-03 3.160124e-02 -1.493629e-04 -1.624506e-06 8.698849e-06
4.733201e-01 -5.473944e-02 1.122583e-01 1.224705e-04 -3.207737e-05 6.438434e-05
3.292259e-01 2.191628e-01 -8.407266e-02 1.404743e-05 9.629300e-05 -2.353456e-05
4.343499e-01 -1.471065e-01 -1.191454e-01 1.051807e-04 -5.435877e-05 -6.473328e-05
6.024926e-02 5.161038e-02 -5.017615e-02 -1.087087e-04 -7.815619e-05 -1.551842e-05
2.825576e-01 2.278472e-01 6.102563e-02 3.141762e-06 8.003204e-05 1.040884e-05
3.660786e-01 -8.624746e-02 -1.550798e-01 -4.448790e-05 2.857486e-05 -1.176893e-04
2.855422e-01 -8.595537e-02 1.016265e-01 -2.567439e-05 1.012373e-04 4.231751e-05
3.801962e-01 -1.272891e-01 -1.592596e-01 1.419963e-05 -9.084184e-06 -1.174274e-04
3.560019e-01 8.232567e-02 1.505889e-01 -3.971765e-05 -2.865065e-05 1.031706e-04
3.524404e-01 -8.322084e-02 1.490606e-01 -5.238845e-05 3.454333e-05 7.612474e-05
4.805885e-01 5.145524e-02 -9.726524e-02 1.111471e-04 2.217002e-05 -4.826437e-05
3.231910e-01 -6.645615e-02 -1.076868e-01 -8.640853e-05 6.159338e-05 -4.776779e-05
-4.096632e-01 -4.836229e-02 -1.602048e-01 -1.329453e-05 -4.399829e-06 -1.340695e-04
-7.209901e-02 1.491365e-02 1.185350e-02 1.591266e-04 -2.095533e-05 8.917618e-06
-1.721112e-01 2.074548e-01 -1.175339e-01 1.117888e-05 1.337842e-04 -5.317683e-05
-9.673903e-02 2.027505e-01 1.178706e-01 2.720598e-06 9.207994e-05 3.504872e-05
-3.886868e-03 -2.187004e-01 -3.272189e-02 -2.111766e-06 -1.040789e-04 -1.021909e-05
-1.240743e-01 2.222703e-01 -3.215448e-02 5.860902e-06 9.169100e-05 -3.696048e-06
-1.797514e-01 -3.268922e-02 -4.773155e-02 -1.333870e-04 4.881996e-05 -1.752023e-05
6.346326e-02 -4.227193e-02 9.454648e-03 -7.418965e-05 3.968446e-05 -4.663419e-06
-4.721864e-01 -8.386919e-02 -1.021258e-01 -1.293369e-04 -2.585918e-05 -5.639413e-05
2.399635e-01 8.392832e-02 8.670856e-02 1.489568e-05 -1.220026e-04 3.135508e-05
2.971247e-01 -1.145488e-01 -1.468068e-01 -2.725825e-05 9.172488e-05 -1.075114e-04
-4.940442e-01 2.887732e-02 5.280918e-02 -9.507413e-05 5.983230e-06 1.350096e-05
1.722062e-01 -1.572091e-01 1.645412e-01 1.385519e-05 -3.616847e-05 1.506766e-04
4.823719e-01 -8.575574e-02 6.843711e-02 9.189243e-05 -1.756080e-05 2.320187e-05
-3.830401e-01 1.609644e-01 -1.472268e-01 -2.733628e-05 4.251460e-05 -5.875690e-05
-2.094188e-01 -2.294938e-01 -2.084105e-02 9.957038e-06 -1.189531e-04 -4.802244e-06
-2.468498e-02 8.185902e-02 -9.405431e-02 2.043993e-05 -7.937412e-05 -1.805143e-05
4.977094e-01 -1.618758e-02 -2.843523e-02 9.770324e-05 -5.798201e-06 -4.950599e-06
-4.815676e-01 -7.204455e-02 -8.192071e-02 -1.491748e-04 -2.966810e-05 -3.985877e-05
-5.164126e-02 2.055743e-01 -1.059050e-01 2.646316e-06 1.433687e-04 -5.172241e-05
-2.023025e-02 7.813414e-02 7.219771e-02 2.189525e-05 -8.928244e-05 1.889325e-05
2.769995e-01 2.234938e-01 -8.252108e-02 2.953852e-06 7.988848e-05 -1.876619e-05
-1.521527e-01 3.487702e-02 -1.481638e-01 -8.415191e-05 -2.506064e-05 -6.526086e-05
3.145530e-01 -2.284234e-01 -4.712488e-02 1.624380e-05 -1.137655e-04 -1.533057e-05
2.851510e-01 1.711880e-01 1.580724e-01 7.006851e-06 3.959508e-05 1.065389e-04
-1.710957e-01 -2.225084e-01 6.025904e-02 6.850861e-06 -8.194195e-05 1.060982e-05
2.521774e-01 1.392327e-01 -1.600205e-01 1.950903e-05 -5.720561e-05 -1.185567e-04
4.107044e-01 1.586866e-01 1.332203e-01 5.481319e-05 5.911040e-05 5.995683e-05
3.155156e-01 -4.414936e-02 -3.338004e-02 -7.753145e-05 5.059914e-05 -8.237243e-06
-3.893328e-01 -2.029639e-01 -8.390626e-02 -5.856679e-05 -1.079956e-04 -3.308084e-05
-3.363567e-01 -1.133576e-01 1.547509e-01 1.234698e-05 4.188620e-05 1.136309e-04
3.996228e-01 -2.096416e-01 1.204513e-02 5.599897e-05 -1.016242e-04 5.426635e-06
2.726904e-01 -7.209444e-02 -1.549081e-02 -1.926344e-05 9.134721e-05 -4.021399e-07
1.783741e-01 5.902357e-02 1.180449e-01 8.839550e-05 -6.141725e-05 3.593536e-05
-3.277904e-01 -5.932958e-02 -1.067366e-01 1.066134e-04 6.831242e-05 -5.572845e-05
2.071217e-01 -1.111550e-01 1.526316e-01 1.980627e-05 5.598000e-05 7.766342e-05
-2.740268e-01 2.316599e-01 -3.197543e-02 2.111379e-06 1.034854e-04 -6.000794e-06
-3.431687e-01 2.248574e-01 -4.252177e-02 -1.547727e-05 1.066162e-04 -1.425959e-05
2.115527e-02 7.818634e-02 -7.309108e-02 -1.638438e-05 -6.587329e-05 -1.310687e-05
-4.348294e-01 1.650402e-01 9.661385e-02 -8.198409e-05 8.748691e-05 5.349313e-05
-6.828430e-03 9.152978e-02 -1.152850e-01 5.411021e-06 -8.823885e-05 -3.245170e-05
-1.278383e-01 -1.381586e-01 -1.699725e-01 -7.399706e-06 -1.630793e-05 -1.243624e-04
4.994821e-01 -4.444373e-03 -5.346026e-03 1.189537e-04 -7.448240e-06 -4.978680e-06
-1.658359e-01 2.544188e-02 -1.180248e-01 -1.186936e-04 -1.499788e-05 -4.449310e-05
-3.670424e-01 2.010673e-01 1.104038e-01 -3.717954e-05 1.213180e-04 5.257156e-05
6.868361e-02 1.510465e-01 -1.641129e-01 -5.007656e-06 7.898656e-06 -9.865708e-05
2.964228e-01 1.431272e-01 1.602289e-01 -2.297844e-06 -1.996414e-05 1.289070e-04
-3.134217e-01 7.201228e-02 1.022535e-01 8.875316e-05 -1.076710e-04 6.169489e-05
7.870772e-02 1.149383e-01 -1.632150e-01 -4.009728e-05 -2.692082e-05 -1.244672e-04
1.927991e-01 -1.502166e-01 1.650913e-01 3.752708e-06 -1.169208e-05 9.187185e-05
3.616824e-01 2.167485e-01 -6.771152e-02 2.187204e-05 7.170639e-05 -1.875220e-05
-1.704674e-01 2.230957e-01 5.477403e-02 6.462791e-06 7.738394e-05 1.000920e-05
-3.116320e-01 -4.620268e-02 -1.152294e-02 5.288762e-05 3.124000e-05 -1.725389e-06
4.478832e-02 7.718343e-02 1.040590e-01 -7.066709e-05 -1.280016e-04 4.401959e-05
4.848384e-01 6.584698e-02 7.396122e-02 1.408403e-04 2.788691e-05 3.744148e-05
1.701697e-01 1.369001e-01 -1.667405e-01 1.078514e-05 -3.793454e-06 -1.278269e-04
-2.163763e-01 -1.231109e-01 1.581342e-01 -1.122651e-05 4.051774e-05 1.042141e-04
2.354883e-01 -2.312253e-01 1.527981e-02 -4.027070e-06 -1.128952e-04 5.063474e-06
-1.849884e-01 -4.126911e-02 2.162189e-02 -1.079117e-04 4.799813e-05 3.574531e-06
-4.469895e-01 1.664779e-01 6.260640e-02 -7.017163e-05 4.286041e-05 1.572101e-05
-5.159564e-02 8.780967e-02 -1.323210e-01 3.364805e-05 -8.105164e-05 -6.207322e-05
3.793307e-01 1.679870e-01 1.439404e-01 3.643723e-05 6.624956e-05 8.836649e-05
-2.045825e-01 -1.603833e-01 1.635259e-01 -5.076985e-06 -1.179455e-05 1.141926e-04
1.912833e-01 -5.674097e-02 -6.377062e-02 1.043172e-04 7.729699e-05 -1.393330e-05
-9.572366e-02 1.028074e-01 -1.649126e-01 5.802777e-05 -3.212043e-05 -1.369091e-04
-4.154934e-01 -2.013162e-01 4.782936e-03 -5.786318e-05 -1.029595e-04 4.611356e-06
1.012791e-01 3.324040e-02 -1.527159e-01 -1.033948e-04 -2.740700e-05 -1.198811e-04
-3.858055e-02 8.879088e-02 -1.246568e-01 3.975049e-05 -8.035378e-05 -5.399482e-05
1.242604e-02 -1.859749e-01 1.425867e-01 -3.460095e-06 -8.291625e-05 7.804966e-05
4.131365e-01 -2.026027e-01 -3.939067e-03 5.785040e-05 -1.048948e-04 -5.557969e-06
6.795038e-02 -1.897929e-01 -1.394012e-01 -4.854082e-06 -1.002153e-04 -6.333122e-05
3.885388e-01 1.276334e-01 1.583412e-01 8.623307e-06 9.527726e-06 8.835081e-05
4.419487e-01 -1.716917e-01 -6.140715e-02 7.685026e-05 -8.752729e-05 -2.205623e-05
-1.877082e-01 -4.415903e-02 -1.453995e-02 -7.915858e-05 6.037403e-05 3.171679e-06
-4.016655e-01 -1.828235e-01 -1.138122e-01 -4.264236e-05 -8.637028e-05 -5.201676e-05
3.876930e-01 -1.670232e-01 -1.407893e-01 4.637326e-05 -7.166944e-05 -1.015460e-04
-4.699646e-01 -1.384285e-01 2.676765e-02 -7.195019e-05 -4.350166e-05 4.021432e-06
-1.174761e-01 3.890925e-02 -1.621772e-01 2.019238e-05 -9.401501e-06 -1.028439e-04
-7.226232e-02 9.970864e-03 -1.136578e-02 1.854680e-04 -2.044086e-05 5.906975e-06
2.041438e-01 1.833886e-01 -1.528990e-01 -2.855518e-06 6.119384e-05 -7.494325e-05
2.314422e-01 -2.301851e-01 3.545081e-02 -3.958465e-06 -1.063953e-04 1.333781e-05
3.354072e-01 6.627685e-02 1.251060e-01 -8.089628e-05 -5.930217e-05 7.257975e-05
-4.183539e-01 -1.295822e-02 -1.595910e-01 -2.762305e-05 -1.802175e-06 -1.803449e-04
-2.306597e-01 8.967832e-02 -1.114760e-01 -3.765879e-05 -1.451073e-04 -5.336285e-05
4.151247e-01 -1.887188e-03 -1.599291e-01 1.040002e-05 -1.116581e-06 -1.343134e-04
4.425030e-01 1.401046e-01 1.144139e-01 9.651221e-05 5.964661e-05 5.082213e-05
1.510524e-01 1.373107e-01 1.689885e-01 7.146855e-06 1.246554e-05 1.082169e-04
4.579127e-01 4.260783e-02 -1.378143e-01 7.326993e-05 1.431310e-05 -8.423283e-05
4.991279e-01 1.240113e-03 1.806029e-02 1.405036e-04 8.812854e-06 6.340465e-06
-4.025183e-01 -9.968446e-02 1.591409e-01 -1.486113e-05 -6.711709e-06 9.416814e-05
-1.642677e-01 1.526311e-01 1.662652e-01 5.572891e-06 3.834833e-05 1.323128e-04
3.793917e-01 -1.127062e-02 1.511409e-01 -7.254532e-05 8.842171e-06 1.447620e-04
9.196261e-02 3.269415e-02 -1.405549e-01 -1.054122e-04 -2.717935e-05 -6.981204e-05
6.020351e-02 -5.215895e-02 6.050993e-02 -1.298636e-04 9.673225e-05 3.110715e-05
-2.749468e-01 -2.322934e-01 1.882064e-02 -2.886628e-06 -9.176387e-05 3.919985e-06
-3.519162e-01 1.278935e-01 1.601549e-01 5.103838e-06 -1.397033e-05 1.111936e-04
-2.357773e-01 -7.508396e-02 -3.269066e-02 -2.059681e-05 1.425248e-04 -1.236275e-05
-4.407194e-02 -1.943982e-01 -1.310575e-01 2.403050e-06 -1.100155e-04 -6.717678e-05
2.096890e-01 6.959407e-02 -5.956805e-02 4.717056e-05 -1.013060e-04 -1.224329e-05
-4.958379e-01 4.913102e-02 -2.335385e-02 -1.058494e-04 2.025824e-05 -6.219340e-06
-1.054503e-01 -2.212497e-01 3.155031e-02 6.187112e-06 -1.141272e-04 5.770838e-06
-2.144707e-01 -7.204324e-02 6.510271e-02 -5.596876e-05 1.215582e-04 2.641389e-05
2.475278e-01 -2.316397e-01 -1.495197e-02 -3.795955e-06 -1.110645e-04 -4.582683e-06
-4.006797e-01 -1.631226e-01 -1.370087e-01 -5.060278e-05 -4.699321e-05 -6.326474e-05
-1.984569e-02 -2.103159e-01 -8.804914e-02 1.369022e-06 -8.985648e-05 -1.969172e-05
4.426321e-01 1.313663e-02 -1.514998e-01 3.044892e-05 1.632392e-06 -6.019841e-05
-1.543365e-01 -5.624723e-02 1.529475e-01 -8.539719e-05 2.455745e-05 1.108191e-04
-1.602848e-01 2.264722e-02 1.333026e-01 -6.170579e-05 -5.520780e-06 3.677759e-05
-3.442023e-02 -1.706750e-01 -1.557762e-01 2.291749e-06 -4.927932e-05 -9.034280e-05
-6.894779e-02 2.944128e-02 -2.361751e-02 1.424591e-04 -3.230077e-05 -1.031855e-05
-2.978614e-01 6.135829e-02 4.250140e-03 7.560674e-05 -9.819190e-05 4.565948e-06
2.154352e-01 1.742400e-01 -1.582120e-01 2.995150e-07 3.489064e-05 -7.428311e-05
-8.448329e-02 1.440681e-01 -1.658799e-01 8.330060e-06 1.832912e-05 -1.195597e-04
-7.380060e-02 1.726258e-02 -4.893768e-02 1.374105e-04 -1.968398e-05 -6.253252e-06
-9.899197e-02 3.951183e-02 -1.507727e-01 7.887987e-05 -1.254875e-05 -7.804528e-05
1.978706e-01 -7.930510e-02 -1.194182e-01 6.784775e-05 9.373481e-05 -4.001379e-05
-4.327208e-01 -3.171672e-02 1.561494e-01 -4.033054e-05 -2.641187e-06 8.402438e-05
1.076368e-01 -1.874815e-01 1.449189e-01 -1.715141e-06 -9.555051e-05 8.708420e-05
-2.181194e-01 7.281132e-02 6.126196e-02 -3.563551e-05 -8.252560e-05 1.814611e-05
1.853208e-01 -4.352893e-02 4.323722e-02 1.001871e-04 5.479294e-05 9.380942e-06
3.426240e-01 2.264792e-01 -2.655161e-02 1.279320e-05 8.837534e-05 -3.995952e-06
-6.205740e-04 -2.075638e-01 -9.792825e-02 1.182603e-06 -8.612773e-05 -2.596444e-05
-4.707688e-02 -6.008472e-02 -1.265328e-02 8.985784e-05 1.308423e-04 4.855052e-07
-4.069836e-02 -2.144477e-01 6.869849e-02 -8.747375e-07 -1.402563e-04 2.603214e-05
-7.952176e-02 3.572768e-02 1.117098e-01 1.308167e-04 -3.230554e-05 3.192203e-05
-1.557321e-01 1.919025e-01 -1.422086e-01 6.852464e-06 7.692600e-05 -7.040829e-05
4.306880e-01 1.894406e-01 1.612514e-02 7.275520e-05 7.727794e-05 5.114933e-06
7.802570e-02 9.466346e-02 1.560440e-01 -5.408363e-05 -4.544390e-05 9.307973e-05
-4.098929e-02 1.893523e-01 -1.381350e-01 1.421831e-05 1.794400e-04 -1.357005e-04
-2.900538e-01 2.299178e-01 -4.262210e-02 -6.245077e-06 1.713903e-04 -2.206158e-05
-3.227597e-01 -1.160150e-01 -1.528919e-01 1.360911e-05 4.092168e-05 -8.638206e-05
-1.816978e-02 2.000175e-01 -1.202598e-01 -4.604622e-06 1.488070e-04 -6.351920e-05
3.062185e-01 2.201188e-01 -9.168907e-02 9.350710e-06 1.260641e-04 -2.854926e-05
-4.537132e-01 -1.149195e-01 1.178108e-01 -1.077927e-04 -3.289859e-05 5.676626e-05
-4.808205e-01 8.412189e-02 -7.567474e-02 -1.246977e-04 2.480139e-05 -3.331767e-05
-2.950243e-01 -2.261054e-01 -6.863117e-02 -9.113179e-06 -1.382377e-04 -2.829833e-05
2.246747e-02 2.181504e-01 3.897596e-02 -2.274729e-06 1.005533e-04 9.037069e-06
4.836882e-02 -1.755555e-01 1.533972e-01 1.514859e-06 -5.843685e-05 6.291556e-05
8.485869e-02 5.446990e-03 -1.136821e-01 -1.638992e-04 1.045265e-06 -4.157407e-05
-3.298690e-01 2.290985e-01 -9.307716e-03 -1.715236e-05 1.183795e-04 -5.111016e-06
-2.961509e-01 -2.023078e-01 -1.321678e-01 -5.863512e-06 -1.111850e-04 -7.098710e-05
2.112127e-01 2.299082e-01 -1.282545e-02 -9.956071e-06 1.191013e-04 -4.800945e-06
-2.437139e-01 2.225176e-01 -8.431315e-02 3.480080e-06 1.063958e-04 -2.493164e-05
-6.621771e-02 4.206504e-02 -5.003362e-02 1.281047e-04 -6.609864e-05 -2.068447e-05
-3.263433e-01 1.880082e-03 -2.953047e-02 8.743638e-05 -6.996611e-06 -1.240766e-05
-6.751592e-02 -3.892617e-02 -4.889922e-02 1.876234e-04 7.177790e-05 -1.841195e-05
4.684942e-01 1.140744e-01 8.441171e-02 1.393923e-04 5.112073e-05 3.947307e-05
2.574146e-01 -2.324417e-01 -3.700680e-03 -3.758676e-06 -1.099774e-04 -4.534775e-06
-6.784253e-02 -3.144914e-02 -1.119494e-02 7.875293e-05 3.467432e-05 2.584169e-06
-1.878525e-01 2.185258e-01 -8.662506e-02 8.378681e-06 1.020933e-04 -2.397813e-05
-1.668824e-01 4.180917e-02 1.281073e-01 -1.076928e-04 -3.666339e-05 4.167825e-05
3.021048e-01 -6.014210e-02 3.955102e-02 -7.825920e-05 9.805827e-05 6.013748e-06
3.878695e-01 -6.149518e-02 -1.584994e-01 -1.846569e-05 6.233602e-06 -1.354229e-04
-4.435908e-01 1.630048e-01 -8.079304e-02 -1.290617e-04 8.123819e-05 -4.536911e-05
4.752299e-01 -1.151453e-01 -5.515091e-02 7.697770e-05 -2.817960e-05 -1.201880e-05
-4.873569e-01 6.428980e-02 -6.584403e-02 -9.265173e-05 1.793291e-05 -2.393578e-05
7.816444e-02 1.057696e-02 8.214367e-02 -1.355589e-04 -1.498261e-05 2.218955e-05
-3.814747e-01 2.791885e-02 -1.528606e-01 7.231387e-05 -8.769246e-06 -1.562785e-04
7.838566e-02 1.832376e-01 1.478119e-01 -1.490538e-06 5.361739e-05 6.329405e-05
-3.198203e-01 -3.428520e-02 2.507640e-02 1.331281e-04 4.227005e-05 9.027847e-06
-9.223866e-02 7.914938e-02 -1.569424e-01 7.531295e-05 -4.201157e-05 -1.079910e-04
-4.041854e-01 1.592024e-01 1.373778e-01 -5.852337e-05 5.598749e-05 8.544124e-05
3.230194e-01 -4.846531e-02 -7.931526e-02 -1.107418e-04 6.402913e-05 -4.231555e-05
2.154055e-01 6.829769e-02 1.168916e-02 7.658525e-05 -1.589259e-04 7.913182e-06
-4.993738e-01 -5.844660e-03 -8.537006e-03 -9.874640e-05 -5.399265e-06 -3.367293e-06
-5.108949e-02 -6.057600e-02 -4.460326e-02 8.792162e-05 1.131707e-04 -1.690855e-05
-4.552985e-01 -3.507577e-02 -1.409496e-01 -8.497287e-05 -5.663294e-06 -9.719237e-05
-3.909048e-01 1.527302e-01 1.488267e-01 -3.909389e-05 5.380006e-05 1.131930e-04
4.598972e-01 -5.887798e-02 1.321231e-01 9.566680e-05 -1.929480e-05 6.905682e-05
-2.173085e-01 -1.500526e-01 1.636923e-01 -1.268672e-06 -2.454908e-06 1.222588e-04
3.951576e-01 3.297775e-02 1.585770e-01 -3.200778e-05 5.154471e-06 9.444408e-05
-1.343703e-01 1.781319e-01 -1.545793e-01 1.984097e-06 7.657139e-05 -1.418463e-04
2.976202e-01 2.259208e-01 6.900189e-02 5.780191e-06 1.383000e-04 3.228837e-05
-2.913805e-01 -1.434152e-01 1.607051e-01 -9.684032e-07 2.033259e-05 8.876024e-05
2.161223e-01 -8.241562e-02 1.041626e-01 4.510698e-05 9.595621e-05 3.336097e-05
5.719914e-02 -5.687563e-02 -5.902636e-02 -5.908199e-05 5.466918e-05 -9.941941e-06
-5.023920e-02 5.910986e-02 2.376674e-02 1.164800e-04 -1.216524e-04 4.973410e-07
-2.599950e-01 -2.099766e-01 -1.225751e-01 1.568938e-06 -1.246801e-04 -7.225849e-05
-1.164641e-02 -1.356678e-01 -1.604529e-01 1.069459e-05 2.308522e-05 -1.121583e-04
-4.459418e-01 1.418838e-02 -1.497781e-01 -4.290607e-05 -1.484068e-06 -6.609549e-05
-2.530706e-01 2.246124e-01 7.681830e-02 5.004896e-06 1.674308e-04 3.841017e-05
-3.273762e-01 -1.367636e-01 -1.596575e-01 7.508976e-06 1.500764e-05 -9.662336e-05
2.394991e-01 -2.288729e-01 -4.770750e-02 -3.869164e-06 -1.126279e-04 -1.443208e-05
2.883694e-01 2.256147e-01 -7.163077e-02 5.311402e-06 1.363512e-04 -3.202624e-05
7.056128e-02 3.584669e-02 -6.694584e-02 -7.107063e-05 -2.885641e-05 -4.524936e-06
-1.818503e-01 -7.200812e-02 1.295345e-01 -7.626446e-05 4.658694e-05 3.255373e-05
-1.795744e-01 3.029117e-02 -4.231907e-02 -1.307659e-04 -4.707709e-05 -7.122098e-06
4.398154e-01 9.136711e-02 1.432889e-01 7.456061e-05 2.775578e-05 9.338813e-05
-1.112236e-01 2.180609e-01 -6.103164e-02 5.023653e-06 7.785370e-05 -9.787922e-06
2.919500e-01 1.006939e-01 -1.313429e-01 -3.040757e-05 -1.320719e-04 -9.184713e-05
3.400748e-01 -8.937840e-03 -9.756544e-02 -1.214604e-04 9.068394e-06 -5.154518e-05
-2.615028e-01 1.365312e-01 -1.590321e-01 -9.671606e-06 -2.860842e-05 -1.110286e-04
-3.026925e-02 1.974542e-01 1.253751e-01 4.410881e-06 1.075957e-04 5.769583e-05
2.965668e-01 8.739851e-02 -1.126571e-01 -4.650849e-05 -1.141164e-04 -5.934100e-05
1.127543e-01 2.015320e-01 -1.226674e-01 -4.679614e-06 1.008518e-04 -4.034141e-05
7.730366e-02 -6.224059e-03 7.433479e-02 -1.335529e-04 8.453749e-06 2.004667e-05
4.121807e-02 1.169975e-01 1.557717e-01 -2.732152e-05 -5.548151e-05 7.852745e-05
3.166263e-02 2.156895e-01 -5.905578e-02 -2.742414e-08 1.156873e-04 -1.356175e-05
4.513561e-01 2.869791e-02 1.449686e-01 8.851544e-05 5.760558e-06 1.015086e-04
4.882892e-01 -5.433047e-02 6.948962e-02 1.143581e-04 -2.261906e-05 2.956504e-05
-2.009494e-01 2.279163e-01 -3.612180e-02 1.097865e-05 1.173921e-04 -1.336681e-05
-4.272225e-01 1.808928e-01 -7.552937e-02 -7.095276e-05 7.570694e-05 -2.855049e-05
2.830313e-01 1.484246e-01 -1.606534e-01 -1.972604e-06 -1.694146e-05 -1.048340e-04
-1.992637e-01 -2.140774e-01 -1.061449e-01 9.606459e-06 -1.246947e-04 -4.701580e-05
-5.445895e-03 -1.978430e-01 -1.235796e-01 1.237402e-06 -9.441999e-05 -5.270175e-05
-4.681451e-02 2.194234e-01 -2.180036e-02 3.626482e-06 2.237079e-04 -1.002517e-05
-4.215288e-01 -1.119218e-01 -1.499215e-01 -4.246924e-05 -3.042473e-05 -8.981009e-05
-4.921475e-01 4.994529e-02 5.452888e-02 -9.427022e-05 1.856466e-05 1.363912e-05
-4.828415e-01 -4.481609e-02 9.527294e-02 -1.451217e-04 -8.794950e-06 4.466653e-05
2.752743e-01 2.216991e-01 9.037386e-02 8.120640e-06 1.189490e-04 3.408073e-05
1.705647e-01 1.918163e-01 1.440883e-01 -1.034265e-05 1.160630e-04 1.062410e-04
-2.785781e-01 -2.304731e-01 4.227464e-02 -2.823036e-06 -8.851133e-05 1.142722e-05
-2.724608e-01 1.131072e-01 -1.424405e-01 6.567266e-06 -9.295828e-05 -8.686745e-05
1.048155e-01 -2.199552e-01 -4.380497e-02 -4.447641e-06 -1.209802e-04 -1.541410e-05
-1.747345e-01 4.103957e-02 -1.013238e-01 -1.019299e-04 -3.317339e-05 -2.747508e-05
-2.025199e-01 -2.262699e-01 5.140661e-02 1.058191e-05 -1.274457e-04 1.634396e-05
-9.993744e-03 7.525864e-02 4.231307e-02 5.013565e-06 -6.500694e-05 2.224727e-06
-2.068735e-01 7.806644e-02 -1.037728e-01 -5.084304e-05 -1.078885e-04 -3.587161e-05
-1.621216e-01 2.153753e-01 -9.098540e-02 8.691387e-06 1.052590e-04 -2.490068e-05
-1.832339e-02 1.194984e-01 1.547757e-01 7.804579e-06 -5.332432e-05 1.032505e-04
2.448888e-01 -7.524859e-02 -2.633850e-02 9.953635e-06 1.053811e-04 -1.107602e-05
6.329650e-02 -4.478780e-02 4.230218e-02 -8.166462e-05 5.386906e-05 2.760223e-06
4.628383e-01 -1.462449e-01 4.364771e-02 1.006204e-04 -6.150919e-05 1.761725e-05
-1.592761e-01 2.308664e-03 -1.283592e-01 -1.720583e-04 -2.232829e-05 -6.569438e-05
-6.105040e-02 2.182093e-01 -4.474274e-02 5.255327e-06 1.596198e-04 -2.046668e-05
2.691544e-01 -2.261718e-01 7.239108e-02 -1.609091e-06 -9.143691e-05 1.971406e-05
7.210823e-02 2.177600e-01 5.130882e-02 -4.669050e-06 1.360479e-04 1.812564e-05
-3.535178e-01 4.166400e-02 1.324029e-01 1.032720e-04 -2.401023e-05 7.510602e-05
1.143074e-01 -1.608022e-01 1.635395e-01 -1.010591e-06 -4.475940e-05 9.659798e-05
4.113073e-01 -1.804872e-01 1.056661e-01 8.834629e-05 -1.175425e-04 6.640673e-05
-7.279408e-02 2.402743e-02 5.850764e-02 1.607892e-04 -3.497823e-05 1.972611e-05
3.060478e-01 1.875570e-01 -1.468453e-01 1.287411e-05 8.271789e-05 -9.003494e-05
-2.074241e-01 1.766742e-01 -1.574403e-01 -3.841456e-07 3.064785e-05 -7.348263e-05
2.715592e-01 1.976625e-01 -1.401989e-01 7.323936e-06 8.907200e-05 -9.189232e-05
1.958693e-01 7.258850e-02 -1.074784e-01 7.885947e-05 -1.042140e-04 -4.353975e-05
4.833743e-01 8.664460e-02 -6.303678e-02 8.444694e-05 1.747714e-05 -1.246078e-05
-3.544938e-02 2.149756e-01 -6.575161e-02 1.106456e-06 1.020078e-04 -1.167334e-05
-2.247529e-01 8.388997e-02 1.000341e-01 -2.283476e-05 -8.924678e-05 3.187184e-05
-2.316614e-01 2.313451e-01 -6.647722e-03 5.101789e-06 1.224954e-04 -4.684141e-06
-4.961699e-01 -1.271428e-02 4.501441e-02 -9.370727e-05 -5.883258e-06 1.328340e-05
-4.922852e-01 3.947767e-02 -6.000227e-02 -8.942311e-05 6.236379e-06 -1.276870e-05
3.905823e-01 6.484911e-02 -1.589048e-01 -3.674009e-05 -1.740418e-05 -1.443579e-04
6.803591e-02 4.935348e-02 8.750893e-02 -1.369568e-04 -7.160836e-05 2.502824e-05
-3.779917e-01 1.886898e-01 -1.239005e-01 -3.083565e-05 6.255318e-05 -4.988409e-05
-4.802727e-01 -9.233757e-02 7.158991e-02 -1.326482e-04 -2.918054e-05 3.656253e-05
3.059243e-01 -2.122588e-01 1.140670e-01 5.159272e-06 -1.185499e-04 4.525018e-05
3.112566e-01 4.744717e-02 1.085491e-02 -1.035562e-04 -5.998071e-05 1.708462e-05
4.963092e-01 5.091088e-02 -8.511313e-04 1.308681e-04 2.446095e-05 2.732848e-06
3.344289e-01 1.573196e-01 -1.587987e-01 8.902987e-06 2.016109e-05 -1.531853e-04
9.410872e-02 6.594075e-03 1.392682e-01 -7.911154e-05 -9.808380e-06 5.277500e-05
1.877213e-01 -2.282408e-01 -7.274247e-03 -1.396773e-05 -1.664946e-04 -6.670229e-06
-2.055666e-01 -9.074230e-02 -1.329428e-01 -5.391323e-05 1.149536e-04 -7.390291e-05
4.921828e-02 -2.202930e-01 -1.875791e-03 -2.281233e-06 -8.614345e-05 -3.205751e-06
-7.284789e-02 -2.704925e-02 6.413927e-02 9.551996e-05 2.065135e-05 1.453096e-05
9.477832e-03 -2.173828e-01 -4.424337e-02 -2.112193e-06 -1.199683e-04 -1.230049e-05
-3.322763e-01 -2.251649e-01 5.289938e-02 -1.597957e-05 -1.105333e-04 1.489909e-05
1.016546e-01 -1.937239e-01 -1.359377e-01 -6.776803e-06 -9.617877e-05 -6.467915e-05
2.257079e-01 -1.660672e-01 1.613761e-01 -1.185150e-06 -2.412935e-05 1.146103e-04
-1.779383e-01 -1.468069e-01 1.663373e-01 -6.687079e-06 -1.692013e-05 1.319348e-04
1.840097e-01 -5.094874e-02 -7.940620e-02 8.934256e-05 5.166181e-05 -1.334249e-05
4.395441e-01 -8.524140e-02 -1.450173e-01 7.769725e-05 -2.886179e-05 -9.731829e-05
1.549513e-01 -1.377846e-01 1.687257e-01 8.224977e-06 -1.332342e-05 1.168895e-04
3.353450e-01 -2.285397e-01 -6.753814e-05 1.832862e-05 -1.077348e-04 -1.558080e-06
-3.242088e-01 -2.299426e-01 -1.034268e-02 -1.795150e-05 -1.239853e-04 -5.374840e-06
4.169019e-01 -2.770550e-02 -1.597582e-01 1.711933e-05 -3.463226e-06 -1.153122e-04
8.074047e-02 -1.205862e-01 -1.648012e-01 -1.895822e-05 1.266864e-05 -1.133507e-04
-1.285224e-01 -2.147351e-01 -8.403073e-02 4.614043e-06 -8.309797e-05 -1.980913e-05
-8.086734e-02 4.816909e-02 1.275795e-01 1.104373e-04 -3.858224e-05 4.477150e-05
-1.119342e-01 -1.354822e-01 1.699522e-01 1.247061e-05 -5.321868e-06 1.402162e-04
-1.280890e-01 2.199712e-01 5.468442e-02 5.385756e-06 8.872923e-05 1.155917e-05
-2.626141e-01 1.110118e-01 1.403722e-01 -1.013243e-05 -1.101693e-04 9.984493e-05
2.091448e-01 -2.225946e-01 7.737953e-02 -9.437514e-06 -1.140698e-04 2.670371e-05
6.057794e-02 2.153741e-01 6.606334e-02 -5.545656e-06 1.311286e-04 2.148381e-05
-2.590217e-01 -8.177296e-02 7.229880e-02 9.343876e-06 1.267571e-04 2.955031e-05
2.996072e-01 7.195799e-02 -7.931477e-02 -7.230012e-05 -1.155267e-04 -4.970504e-05
-4.877980e-01 8.953165e-02 2.608327e-02 -9.236734e-05 1.825175e-05 4.318289e-06
1.905064e-02 -2.192320e-01 1.776714e-02 -1.762362e-06 -1.091541e-04 3.208687e-06
-4.067552e-01 -1.780732e-01 1.175875e-01 -7.619858e-05 -7.008105e-05 5.703044e-05
7.974100e-02 2.386238e-02 -1.014712e-01 -1.147445e-04 -2.926764e-05 -2.566194e-05
-4.523716e-01 8.314302e-02 1.354146e-01 -6.959332e-05 3.238844e-05 6.841572e-05
-2.934158e-01 6.953346e-02 -5.457904e-02 4.692162e-05 -9.409586e-05 -1.448448e-05
8.147833e-02 2.158691e-01 6.794086e-02 -1.817011e-06 1.120183e-04 2.069547e-05
-3.186344e-01 -6.145478e-02 9.255613e-02 7.672025e-05 6.129349e-05 3.487507e-05
-4.455970e-01 -1.762608e-01 -5.606979e-03 -5.483131e-05 -5.667926e-05 -3.855041e-06
2.922592e-03 -7.439542e-02 2.305884e-03 -9.080896e-07 6.363368e-05 1.608436e-06
-5.655849e-02 1.374045e-01 1.641588e-01 2.532046e-06 -4.220406e-06 1.386564e-04
4.020842e-02 -2.127484e-01 7.745369e-02 -2.501387e-06 -1.660743e-04 3.461670e-05
-1.968422e-01 -2.212707e-01 7.869422e-02 9.138386e-06 -1.118859e-04 2.619702e-05
-4.583937e-01 1.010740e-01 1.188123e-01 -9.247858e-05 3.520328e-05 6.926406e-05
9.169149e-02 2.692841e-02 1.386674e-01 -8.185713e-05 -1.424048e-05 5.429276e-05
3.602423e-01 1.835638e-01 -1.384096e-01 4.620086e-05 1.347666e-04 -1.144208e-04
8.463756e-02 3.200184e-02 -1.252927e-01 -1.386233e-04 -3.643664e-05 -4.809271e-05
9.307901e-02 1.962698e-01 1.314753e-01 -6.162698e-06 8.870364e-05 5.962976e-05
3.140158e-01 -2.266667e-01 6.069647e-02 1.375828e-05 -1.050345e-04 1.548920e-05
9.865850e-02 -2.218452e-01 -1.206413e-02 -1.129690e-05 -2.050199e-04 -1.012766e-05
-9.219905e-02 2.216307e-01 -7.723527e-03 8.498570e-06 1.530563e-04 -4.253598e-06
-4.964265e-01 -4.256708e-02 -2.356259e-02 -9.755869e-05 -6.125606e-06 -4.424966e-06
-2.827472e-01 1.380162e-01 1.591743e-01 3.541214e-06 -2.249850e-05 1.089290e-04
-8.212764e-02 -4.399782e-02 1.279966e-01 8.806578e-05 2.758919e-05 2.911221e-05
4.209392e-01 1.895018e-01 6.814964e-02 9.671678e-05 1.040052e-04 3.884687e-05
-3.343886e-01 6.135586e-02 -1.196115e-01 7.106190e-05 -5.048007e-05 -6.315015e-05
4.111057e-01 -8.217639e-02 -1.588232e-01 1.970398e-05 -6.785127e-06 -1.106096e-04
7.060445e-02 8.673057e-02 1.456826e-01 -3.863621e-05 -6.102872e-05 7.439366e-05
-1.256414e-02 7.359914e-02 -2.349741e-02 7.830352e-06 -8.714675e-05 -1.060000e-05
3.051234e-01 2.252071e-01 -7.056606e-02 2.987589e-06 8.666616e-05 -1.971330e-05
-3.233119e-01 5.156870e-02 -8.594793e-02 8.856829e-05 -5.994427e-05 -3.809194e-05
-2.016656e-01 -6.049032e-02 1.477217e-02 -7.652918e-05 1.012959e-04 4.322070e-06
4.565288e-01 -5.313383e-03 -1.414341e-01 8.454757e-05 -5.476739e-06 -9.665626e-05
-1.811352e-01 -8.840015e-02 -1.470054e-01 -6.713189e-05 5.835617e-05 -6.440096e-05
-3.824257e-01 2.091603e-01 7.280356e-02 -4.042787e-05 1.307711e-04 3.411108e-05
-3.199845e-01 -3.352873e-02 -3.005018e-02 1.159153e-04 4.648907e-05 -2.034678e-05
2.208378e-01 -2.083139e-01 1.244323e-01 2.233079e-06 -1.201295e-04 7.265367e-05
-3.358480e-01 -2.194597e-01 -7.924239e-02 -2.187038e-05 -1.492220e-04 -3.636675e-05
-2.183047e-01 -1.862199e-01 -1.511668e-01 3.623516e-06 -6.799828e-05 -8.514831e-05
-4.638766e-01 1.479205e-01 -3.147535e-02 -7.072035e-05 4.321374e-05 -3.974248e-06
3.194588e-01 3.928270e-02 -4.297847e-02 -1.092627e-04 -4.982745e-05 -1.762044e-05
4.634782e-01 -4.501960e-02 -1.306646e-01 9.492654e-05 -1.888992e-05 -6.845686e-05
1.877128e-01 -4.565506e-02 2.258475e-02 9.926705e-05 6.597300e-05 1.614003e-06
-4.544869e-02 -2.093953e-01 -9.352468e-02 1.737896e-06 -1.148044e-04 -2.793885e-05
1.608039e-02 1.003777e-01 -1.336196e-01 -1.187088e-05 -9.870212e-05 -5.625689e-05
2.647804e-01 1.428033e-01 1.606611e-01 4.389091e-06 -1.570968e-05 8.787218e-05
-3.059892e-01 1.556432e-01 -1.602918e-01 -2.707196e-06 1.024684e-05 -7.312436e-05
3.143545e-01 4.659966e-02 4.457569e-02 -8.173169e-05 -5.934317e-05 6.403918e-06
-3.349007e-01 -1.589849e-01 -1.584342e-01 -5.297717e-06 -1.462083e-05 -9.090099e-05
-2.718818e-01 -1.201032e-01 1.490994e-01 5.924373e-06 6.139997e-05 6.755847e-05
-3.562547e-01 -2.125910e-01 8.956193e-02 -4.207689e-05 -1.252051e-04 3.946601e-05
3.432806e-01 2.742421e-02 1.118250e-01 -1.366425e-04 -3.242265e-05 6.046126e-05
-1.011414e-01 -2.145325e-01 -7.812745e-02 2.721034e-06 -7.389534e-05 -1.725786e-05
2.006550e-01 -5.868426e-02 -1.279652e-02 5.922693e-05 7.743747e-05 3.274020e-06
-4.417782e-01 1.182131e-01 1.321744e-01 -7.730819e-05 4.729904e-05 6.702841e-05
-1.429376e-02 1.870787e-01 -1.410024e-01 1.439614e-06 4.086193e-05 -3.649198e-05
-2.303878e-01 -7.522376e-02 5.431368e-02 -3.421264e-05 1.346382e-04 2.607808e-05
-6.122649e-02 4.645314e-02 1.962351e-02 1.177619e-04 -7.674659e-05 2.776000e-06
1.733999e-02 1.342525e-01 1.605995e-01 8.770264e-07 -3.641876e-05 1.518522e-04
-5.369247e-02 -9.528419e-02 1.432829e-01 3.319801e-05 7.945895e-05 6.238360e-05
6.583648e-02 -5.818056e-02 -9.948882e-02 -7.701244e-05 5.006219e-05 -1.965905e-05
2.665896e-01 -7.869765e-02 -5.885157e-02 -1.430981e-05 1.119862e-04 -1.829581e-05
2.436190e-01 9.554703e-02 1.200880e-01 3.205013e-05 -1.310209e-04 7.619094e-05
-1.745728e-01 1.607398e-02 -6.122262e-02 -1.264926e-04 -2.221562e-05 -9.584786e-06
-2.223598e-01 -1.014445e-01 -1.374878e-01 -3.587331e-05 8.925444e-05 -6.454298e-05
3.568787e-01 2.206547e-01 -5.387105e-02 3.394726e-05 1.112908e-04 -1.592275e-05
3.432200e-01 -2.367250e-02 1.095908e-01 -1.256604e-04 2.996549e-05 5.525888e-05
-2.228804e-01 7.171764e-02 2.579851e-02 -2.327943e-05 -9.215853e-05 5.072182e-06
-2.991355e-01 1.332042e-01 1.585794e-01 6.820955e-07 -2.839873e-05 1.578188e-04
3.286847e-01 2.978512e-02 7.183997e-02 -1.008751e-04 -2.448324e-05 2.730796e-05
-2.755130e-01 7.905010e-02 7.066371e-02 2.808014e-05 -1.339750e-04 3.105413e-05
3.185487e-01 -3.396601e-02 -1.971207e-04 -9.760886e-05 4.502834e-05 5.051603e-06
1.906238e-01 4.816504e-02 -1.395543e-02 9.664449e-05 -7.367226e-05 3.565498e-06
-4.294233e-01 4.346679e-02 -1.565838e-01 -6.198204e-05 -6.203801e-07 -1.462020e-04
2.577065e-01 -2.312723e-01 -3.244754e-02 -3.290650e-06 -9.580669e-05 -3.922047e-06
-4.423351e-01 -1.198722e-01 -1.300671e-01 -7.686753e-05 -4.672535e-05 -6.690661e-05
-6.956169e-02 -2.116422e-01 8.568461e-02 4.970950e-06 -1.281025e-04 2.801829e-05
1.300740e-01 2.231999e-01 -1.915965e-02 -6.484336e-06 1.040398e-04 -4.432035e-06
2.023233e-01 6.708453e-02 7.168251e-02 7.462416e-05 -1.176056e-04 2.232936e-05
4.462398e-01 -2.930503e-02 -1.485874e-01 6.389400e-05 -7.890452e-06 -1.000330e-04
-3.304666e-01 -3.227786e-02 -8.051839e-02 9.364522e-05 2.688196e-05 -2.855647e-05
-6.148900e-02 -6.079484e-02 8.944357e-02 1.074791e-04 8.745370e-05 3.692301e-05
-3.051196e-01 -5.922994e-02 -4.199491e-02 5.879110e-05 7.347429e-05 -1.392527e-05
-2.838681e-01 -1.020109e-01 -1.303980e-01 2.395504e-05 9.673425e-05 -6.349672e-05
3.317731e-01 -2.004638e-01 1.278271e-01 2.302427e-05 -1.065832e-04 7.197230e-05
-3.764466e-01 1.382357e-01 1.583422e-01 -9.610605e-06 1.180300e-05 9.549844e-05
1.324305e-01 2.196133e-01 -5.919931e-02 -5.310288e-06 8.756262e-05 -1.140488e-05
-1.132422e-01 -8.290096e-02 -1.664145e-01 2.580506e-05 9.460964e-06 -1.218294e-04
-8.827955e-02 2.188648e-01 4.773187e-02 4.285503e-06 1.245077e-04 1.578820e-05
2.778110e-01 1.868420e-01 -1.500059e-01 4.723568e-06 7.326178e-05 -7.907800e-05
2.798717e-01 1.189229e-01 -1.484856e-01 -6.845974e-06 -7.306328e-05 -7.963001e-05
3.235393e-01 -1.524829e-01 1.602521e-01 -1.106388e-06 -1.562506e-05 1.811158e-04
6.027986e-02 -1.634893e-01 1.604777e-01 -5.644807e-06 -6.404009e-05 1.319769e-04
-7.756194e-02 1.562048e-02 -8.527781e-02 1.223430e-04 -1.117546e-05 -2.948494e-05
3.319314e-01 3.580549e-02 9.016875e-02 -1.066565e-04 -3.688139e-05 3.630509e-05
6.563888e-03 7.382462e-02 -6.987595e-03 -6.241945e-06 -8.107738e-05 2.775766e-06
-4.964816e-01 4.459063e-02 1.978454e-02 -1.330476e-04 8.346769e-06 6.032698e-06
3.414151e-01 -5.957933e-02 -1.262136e-01 -7.197604e-05 5.029071e-05 -6.433766e-05
1.201897e-01 2.174023e-01 -6.989071e-02 -4.908458e-06 7.756057e-05 -1.762030e-05
1.437081e-01 -8.691221e-02 -1.656433e-01 2.786310e-05 1.926222e-05 -1.436023e-04
-1.453811e-01 3.713752e-02 1.559876e-01 -6.671008e-05 -1.633467e-05 1.029708e-04
-4.963144e-01 3.503761e-02 -3.357470e-02 -1.045136e-04 6.987583e-06 -1.437619e-05
4.535009e-01 1.648501e-01 -2.928305e-02 7.014995e-05 4.264874e-05 -4.100593e-06
1.985753e-01 -5.808986e-02 1.062117e-02 5.776390e-05 7.574786e-05 3.178676e-06
-3.203499e-01 2.202059e-01 -8.520549e-02 -1.764501e-05 1.211320e-04 -2.962967e-05
3.362097e-01 5.892116e-02 -1.199038e-01 -1.041372e-04 -6.430248e-05 -8.167667e-05
-4.433594e-01 -6.765695e-02 1.464404e-01 -8.267363e-05 -1.690973e-05 9.754149e-05
-4.515127e-01 1.701202e-01 9.614373e-03 -5.757871e-05 5.895924e-05 2.674770e-06
-4.324917e-01 -1.865002e-01 -3.382635e-02 -5.917667e-05 -6.436966e-05 -1.159158e-05
3.810766e-01 -1.977574e-01 -1.061042e-01 4.492123e-05 -1.246670e-04 -6.172837e-05
-3.539458e-01 1.973985e-01 -1.237896e-01 -2.692948e-05 8.426705e-05 -5.936283e-05
3.326552e-01 2.341948e-02 -8.217739e-02 -1.169557e-04 -1.963388e-05 -2.823893e-05
-3.845217e-01 1.948688e-01 1.088610e-01 -5.336570e-05 1.127447e-04 5.338386e-05
4.394008e-01 1.735544e-01 -6.260974e-02 7.424833e-05 8.489029e-05 -2.198199e-05
-7.330153e-03 2.180310e-01 4.018510e-02 2.604690e-06 9.358042e-05 8.737318e-06
1.730684e-01 -1.404583e-02 7.002650e-02 9.047694e-05 6.022398e-06 1.332727e-05
-3.206670e-01 -4.856028e-02 7.118373e-02 8.732846e-05 6.496085e-05 2.941038e-05
3.120347e-01 -7.695646e-02 1.089534e-01 -6.221096e-05 7.523675e-05 4.352859e-05
-4.747284e-01 -1.219634e-01 -4.336396e-02 -7.970694e-05 -2.917283e-05 -1.244755e-05
1.965486e-01 5.684339e-02 2.728631e-02 1.069332e-04 -1.193678e-04 -5.222804e-06
-2.684605e-02 -1.955521e-01 -1.286064e-01 2.552156e-06 -1.048173e-04 -6.143728e-05
-3.312720e-01 -3.811988e-02 8.994823e-02 1.438820e-04 4.582321e-05 3.964551e-05
1.663741e-01 -2.203558e-03 -1.043221e-01 7.778934e-05 4.761596e-06 -1.952709e-05
8.703717e-02 -6.755241e-02 -1.485192e-01 -7.718704e-05 3.121389e-05 -7.516477e-05
1.206877e-01 -1.943942e-02 1.622629e-01 -1.991293e-05 6.900204e-06 1.194724e-04
-9.432409e-02 4.213609e-02 1.470079e-01 6.162239e-05 -2.035025e-05 5.104743e-05
-4.334585e-01 -1.775034e-01 6.945101e-02 -9.097640e-05 -9.680730e-05 3.630198e-05
5.666214e-02 1.813099e-01 1.483327e-01 -3.319782e-06 6.133891e-05 6.360202e-05
2.208791e-03 -1.350725e-01 1.605509e-01 -6.912194e-06 2.239041e-05 1.451572e-04
2.152401e-01 7.871484e-02 9.363549e-02 3.634758e-05 -8.855870e-05 1.833330e-05
-1.845964e-01 -2.265094e-01 3.785845e-02 1.133757e-05 -1.028266e-04 9.992412e-06
2.379060e-01 2.309764e-01 -2.134230e-02 -3.649974e-06 1.068571e-04 -4.391485e-06
-1.280367e-01 9.059873e-02 -1.681733e-01 -1.648897e-07 -1.650361e-05 -1.006203e-04
-4.096659e-01 -2.034642e-01 -2.535507e-02 -5.228060e-05 -9.488494e-05 -5.065850e-06
-4.968604e-01 4.784546e-02 5.354655e-03 -1.307896e-04 9.503974e-06 2.665001e-06
-3.993050e-01 -2.063492e-01 4.757108e-02 -5.142541e-05 -9.347529e-05 1.559381e-05
-2.475190e-02 7.191843e-02 2.370743e-02 2.410713e-05 -9.715374e-05 3.469705e-06
4.909109e-01 4.264303e-04 7.567074e-02 8.790366e-05 -4.217988e-07 2.109437e-05
2.973131e-01 8.783758e-02 1.151536e-01 -5.435463e-05 -1.187555e-04 5.426346e-05
-1.773255e-01 1.878040e-01 -1.480279e-01 1.877250e-06 9.046926e-05 -9.684553e-05
-5.076257e-02 -5.888409e-02 2.870269e-02 6.527789e-05 7.106639e-05 6.302632e-06
-3.657249e-01 -2.179741e-01 -5.450356e-02 -3.129269e-05 -1.022117e-04 -1.490842e-05
4.016232e-01 -2.077039e-01 2.763455e-02 5.670277e-05 -1.026886e-04 5.494368e-06
2.699304e-01 -2.159988e-01 1.082929e-01 4.925298e-06 -1.242160e-04 4.743324e-05
3.199195e-01 -2.075955e-01 1.197928e-01 8.777540e-06 -1.115826e-04 5.191690e-05
-8.725200e-03 1.486696e-01 -1.615181e-01 -1.540993e-05 1.673163e-05 -2.066515e-04
-3.492387e-01 -2.189698e-01 7.352875e-02 -1.835678e-05 -1.253209e-04 3.053456e-05
-2.358495e-01 2.192466e-01 -9.708580e-02 2.744921e-06 9.224240e-05 -2.170702e-05
1.542537e-01 -1.514133e-01 -1.663026e-01 2.628108e-06 -2.980841e-05 -1.476417e-04
-1.101157e-01 2.761566e-02 1.583843e-01 4.875259e-05 -1.799122e-05 1.017126e-04
4.887902e-01 6.168268e-02 -5.989443e-02 1.347194e-04 2.516571e-05 -2.293232e-05
4.031687e-01 -9.692459e-02 1.591955e-01 1.658110e-05 -6.297332e-06 1.203940e-04
1.171963e-01 1.111293e-01 -1.706549e-01 -1.409043e-05 -1.115794e-05 -8.788698e-05
-1.413353e-01 1.478354e-01 -1.673756e-01 -1.751841e-06 1.819907e-05 -1.034755e-04
3.074827e-01 2.317618e-01 -1.872409e-03 3.378274e-06 9.074263e-05 -3.534740e-06
5.883376e-02 -1.371983e-01 -1.633070e-01 1.398084e-05 1.260849e-05 -1.300302e-04
3.383618e-02 9.085894e-02 1.253570e-01 -1.862680e-05 -8.373030e-05 5.395344e-05
9.765768e-02 -5.847233e-02 1.553481e-01 -6.701519e-05 1.779364e-05 9.947806e-05
4.420790e-01 -1.487106e-01 1.052007e-01 8.051577e-05 -4.975681e-05 4.240150e-05
-3.676019e-01 2.104175e-01 -8.499005e-02 -3.732708e-05 1.218079e-04 -3.228876e-05
-1.504098e-01 5.240629e-02 -1.549943e-01 -4.863291e-05 -1.569104e-05 -6.060635e-05
-7.277954e-02 -1.510386e-01 1.643908e-01 7.529828e-06 -1.545968e-05 9.831287e-05
-4.182611e-01 6.133612e-02 -1.586740e-01 -1.450041e-05 5.536899e-06 -1.035721e-04
4.969151e-01 -2.701981e-02 3.088401e-02 8.826426e-05 -5.306945e-06 4.424280e-06
-8.985183e-02 -3.093740e-02 1.364663e-01 7.421084e-05 1.266467e-05 4.583881e-05
3.541898e-01 -1.181871e-01 -1.590714e-01 -9.961232e-06 1.500880e-05 -1.284973e-04
6.181222e-02 4.607832e-02 2.803184e-02 -1.324598e-04 -8.254594e-05 3.858552e-06
-4.779364e-02 -1.634498e-01 1.598904e-01 2.159105e-06 -7.633770e-05 1.533771e-04
2.652509e-02 -2.103892e-01 -8.816238e-02 -1.416477e-06 -8.445860e-05 -1.837540e-05
7.085697e-02 1.360511e-01 1.650300e-01 -1.521029e-05 1.188654e-06 1.126969e-04
2.649944e-01 -2.224265e-01 -8.788177e-02 -4.261405e-06 -1.427861e-04 -3.278581e-05
3.747955e-01 1.033945e-01 1.599463e-01 -1.142382e-05 -1.055286e-05 1.144582e-04
-3.403497e-02 -2.195042e-01 -1.293138e-02 2.599909e-06 -1.138471e-04 -4.225957e-06
-4.938141e-01 -6.075449e-02 -1.896756e-02 -9.416139e-05 -1.859580e-05 -4.384772e-06
-4.555839e-01 6.355958e-02 1.366661e-01 -8.604731e-05 2.384006e-05 7.360649e-05
-2.365911e-01 9.323462e-02 1.176415e-01 -2.291788e-05 -9.628740e-05 3.359116e-05
2.595697e-01 -1.586356e-01 1.617280e-01 3.550873e-06 -1.475944e-05 1.058612e-04
-2.673281e-01 2.261995e-01 -7.142404e-02 3.419254e-06 1.026570e-04 -2.234320e-05
-4.496888e-02 -2.135334e-01 -7.503352e-02 2.449185e-06 -1.416013e-04 -3.014540e-05
7.212688e-02 2.135654e-02 5.239389e-02 -8.632371e-05 -1.788059e-05 1.402185e-05
4.887379e-01 -8.961155e-02 -2.323731e-03 9.008165e-05 -1.778726e-05 -4.181216e-06
-2.373624e-01 8.184435e-02 -7.849425e-02 -2.024333e-05 -1.000923e-04 -2.758834e-05
4.930698e-01 5.459412e-02 4.079769e-02 9.722119e-05 1.910096e-05 1.416927e-05
-3.179180e-01 -2.305373e-01 1.783655e-02 -1.190785e-05 -8.267072e-05 3.601014e-06
4.635789e-01 -2.161857e-02 1.335722e-01 8.780945e-05 -5.641591e-06 6.144022e-05
-4.953253e-01 -5.657894e-02 -3.849720e-03 -9.496104e-05 -1.780041e-05 -4.624068e-06
1.780404e-01 -6.089154e-02 1.217621e-01 1.051116e-04 6.516277e-05 4.062295e-05
1.871892e-01 1.680427e-01 1.613388e-01 -1.318703e-06 4.441356e-05 1.047982e-04
2.030704e-01 1.700386e-01 1.604400e-01 7.948891e-06 4.296105e-05 1.343620e-04
1.883149e-01 -2.273783e-01 -3.004223e-02 -5.854169e-06 -6.982633e-05 -2.794691e-06
-2.867790e-01 1.038247e-01 1.341065e-01 2.892413e-05 -1.106544e-04 7.787531e-05
4.954330e-01 3.637267e-02 3.863884e-02 1.017296e-04 6.410828e-06 1.442366e-05
1.869171e-01 -8.352644e-02 1.387977e-01 5.379872e-05 9.109695e-05 8.378702e-05
-1.239053e-02 1.667437e-01 -1.575010e-01 3.351489e-06 4.904354e-05 -9.099673e-05
3.383576e-01 9.183775e-02 1.455825e-01 -4.055911e-05 -4.853615e-05 6.758628e-05
2.727126e-01 2.138994e-01 1.133202e-01 5.360001e-06 1.340199e-04 5.111244e-05
-1.519920e-01 -2.254483e-01 4.497165e-04 5.629533e-06 -8.129034e-05 -8.553917e-07
4.315404e-01 -1.014684e-02 -1.573299e-01 5.219674e-05 8.709751e-06 -1.205120e-04
8.597955e-02 4.502470e-02 1.356250e-01 -8.119690e-05 -2.341537e-05 4.742402e-05
-1.530741e-01 -1.310230e-01 1.691179e-01 -1.670935e-05 6.387408e-06 1.489141e-04
-7.650001e-02 7.439497e-02 1.418647e-01 8.008020e-05 -5.700698e-05 8.013842e-05
1.739171e-01 2.078178e-01 1.173885e-01 -8.568557e-06 9.893157e-05 3.966601e-05
3.036736e-01 2.219326e-01 8.516927e-02 4.461829e-06 1.154608e-04 2.695892e-05
-2.376352e-01 -1.904902e-01 -1.481642e-01 1.296835e-06 -4.403021e-05 -4.711615e-05
3.514794e-01 -2.148982e-01 8.704330e-02 3.838638e-05 -1.267080e-04 3.356957e-05
-4.705082e-01 -2.289792e-04 1.258146e-01 -1.145164e-04 -5.153336e-06 7.580192e-05
2.245825e-01 -7.475655e-02 -5.340485e-02 2.924273e-05 9.801236e-05 -1.073904e-05
-1.965952e-01 -5.559247e-02 7.145178e-04 -6.777920e-05 6.348210e-05 -4.442621e-07
4.361021e-01 1.806429e-01 4.543871e-02 7.941060e-05 8.436497e-05 1.740529e-05
-3.098901e-01 -5.234850e-02 3.891373e-02 7.755935e-05 7.283859e-05 5.002302e-06
4.437252e-02 -2.195953e-01 -1.683514e-02 -2.603157e-06 -9.580588e-05 -3.505917e-06
-1.524172e-01 7.800526e-02 1.611521e-01 -5.094385e-05 -4.330834e-05 1.027012e-04
-2.391312e-01 -2.315942e-01 9.382029e-03 3.925457e-06 -1.153672e-04 4.701546e-06
-3.458468e-01 -5.926520e-02 -1.313953e-01 1.019044e-04 4.262395e-05 -8.039180e-05
3.336665e-01 -1.017013e-01 -1.484647e-01 -5.100551e-05 5.722822e-05 -9.123392e-05
4.032262e-01 -2.072383e-01 -1.954169e-02 5.362698e-05 -9.731497e-05 -5.195714e-06
