  0.149164  -0.172509 -0.0570041  -0.926307 0.00758926   0.376693
   -0.1662 -0.0865562   0.282592  -0.888438  -0.458966 0.00526908
  0.122628 -0.0274081   -0.15347 -0.000841466     0.240381     0.970678
 0.254301 -0.258234 0.0835037           1 5.45176e-05 9.34795e-06
 0.191264 0.0998873  0.122181 -0.00101894   -0.590184   -0.807268
-0.260353  0.253486 0.0810337          -1 2.72967e-05 1.50631e-05
  0.080566 -0.0596639  -0.144251 0.00669589    0.41347   0.910493
 0.179132  0.153531 -0.037264 -0.00398835   -0.981077    0.193578
 0.229793  0.263139 -0.176902  7.50707e-05            1 -1.80692e-05
 0.210898  0.105742 -0.263336 0.000177015 7.28947e-05          -1
  0.139062 -0.0242345   0.500167 4.58284e-05 6.51428e-07           1
 0.130432 -0.113224 -0.491624  0.0753382 -0.0808415  -0.993876
0.0987364 -0.171695 -0.262129  0.00022892 0.000390875          -1
  0.16195 0.0884569  0.471385   0.883527   0.468375 0.00242086
 0.263308 0.0360185 -0.212648           1 4.96275e-05 0.000122659
0.261436 0.261035 0.135046    0.707242    0.706972 -7.1036e-05
0.133042  0.12523 0.434743     0.721338     0.692583 -0.000135457
  0.133421    0.21754 -0.0843779 -0.834377 0.0023277  0.551189
 -0.130183   0.168841 -0.0869995   0.853433 0.00190684   0.521199
  -0.261359 -0.00819452   -0.169396 0.0220366 -0.064638  0.997665
-0.019526 0.0952282   0.15727    0.100082 0.000678896   -0.994979
-0.00394335  -0.0630271    0.499654 -2.47433e-05  4.15996e-05            1
-0.0632272  -0.103747  -0.144033   0.426827 0.00344625   0.904327
-0.0140092  -0.184977   0.384621 -0.0523659  -0.998626 0.00210841
0.260258 0.241305 0.263256    0.554903 0.000174953    0.831915
-0.203591 -0.263517 0.0767294  2.45296e-06           -1 -2.87193e-06
 0.183526 -0.263246  0.186265 2.32058e-05          -1  0.00011293
0.0905659 0.0986766 -0.130794  -0.582115 0.00787312   0.813068
0.137942 0.122798 0.353703     0.749646     0.661838 -0.000874444
 0.234224 -0.166383  0.262909 3.87926e-05 1.12015e-05           1
-0.135152 -0.213159  0.080887   0.849463 0.00632975   -0.52761
   0.233046   -0.158484 -0.00720845 0.00688256   0.999976 8.4534e-05
   0.2176 -0.260623  0.238754 -3.47993e-05           -1    6.036e-05
  -0.2007  0.233332 -0.262514 -7.82076e-05  1.80145e-05           -1
 -0.179489 -0.0463514  -0.411035   -0.969068   -0.246795 0.000733383
  0.157737 -0.0946429   0.423751   0.862051   -0.50682 0.00117277
-0.143546  0.262939 -0.209047  -6.2799e-05            1 -1.24105e-05
  0.167533 -0.0569666  -0.499425  0.886266 -0.228092  -0.40312
  -0.259499     0.15989 -0.00889828  -0.113605  -0.993399 -0.0158611
-0.264108 -0.178157  0.224782          -1 3.12441e-05  4.3985e-05
-0.266749 -0.194487  0.110769           -1  3.06129e-05 -4.58236e-05
  0.17408 -0.263137  0.183384 1.92491e-05          -1 0.000126674
-0.263441  0.153753  0.125491          -1 5.12784e-05 5.27647e-05
-0.0241214   0.183347  -0.454071  -0.101938   0.994789 0.00191148
-0.143421 -0.111508  0.350127   -0.772398   -0.635139 0.000265016
0.0767517 -0.173463  0.270364    0.442702   -0.896656 -0.00480125
0.262393 0.149313 0.189316            1 -8.79912e-07  -1.8029e-05
  0.13524 -0.258436   0.24616 1.53745e-05          -1 8.64917e-05
  0.155114 -0.0991083  -0.454733    0.851436   -0.524457 0.000964143
 -0.129134  -0.219178 -0.0943326   0.802304 0.00106025   0.596915
  0.263513   0.167327 -0.0655826            1  1.86705e-05 -8.22376e-05
-0.216234 -0.262629 0.0854986 -4.29282e-05           -1  1.31566e-05
-0.166758  0.263514  0.102283  0.000127047            1 -0.000150881
-0.117992 -0.261859 -0.256741 2.85888e-05   -0.832053   -0.554696
 0.105633 0.0934533  0.498658 -2.0069e-06  7.0384e-05           1
0.0777938 0.0715957  0.500562 4.65378e-05 7.64297e-05           1
  0.127172 -0.0542174  -0.499654 9.38007e-05 1.93941e-05          -1
 0.263327  0.185235 -0.139607           1 7.37912e-05 4.89412e-05
 -0.180552 -0.0469748   0.402513   -0.971588   -0.236679 6.41891e-05
0.112017 0.147369 0.266133 0.542868 0.744133 0.389308
  -0.23888   0.263396 -0.0662646 -0.000199867            1 -2.13908e-05
 -0.256013 -0.0918203  -0.134812 0.016084 0.542646 0.839808
 0.239663 -0.111371 -0.260455   3.879e-05 6.36965e-05          -1
-0.136321 0.0332518 -0.154103 -0.00118829   -0.231907    0.972737
0.0273806  0.182256 -0.418823     0.127031     0.991899 -0.000384318
  0.230849 -0.0420302  -0.261715 0.000177932 6.45777e-05          -1
0.0680541  0.155298 -0.141947   -0.378166 0.000211916    0.925738
 0.088225  0.179735 -0.131066  -0.549028 0.00367099   0.835796
-0.0492285   0.255383   0.149693  0.127306  0.917695 -0.376336
 0.241421 -0.260086 -0.176349  0.000219995           -1 -9.41588e-05
0.0341858 -0.225631 -0.261298 7.1243e-05 0.00011179         -1
-0.263125  0.193697  0.234337          -1 4.55621e-05 2.18267e-06
-0.0928652  -0.194382   0.262203 -5.90154e-05  0.000156239            1
-0.165774  0.261629 -0.161496 1.83783e-05           1 8.48697e-05
 -0.174291 -0.0618156  -0.436318   -0.948762   -0.315992 0.000545989
-0.117116  0.143975  0.106042   0.740643 0.00243714  -0.671895
0.0158058  -0.01024 -0.155134 -0.0242653 0.00696134   0.999681
 0.261838  -0.18505 -0.203816            1  8.21486e-05 -5.76998e-05
 0.045732 -0.201479  0.153571  -0.230555 0.00228737  -0.973057
 0.0965743 -0.0450648   0.499918 7.75706e-05 7.62495e-07           1
 0.149457 -0.108061 -0.387642    0.769166   -0.639049 6.34366e-05
-0.043749 -0.168753  -0.25687 -0.305431 -0.869033 -0.389222
-0.0324177   0.190172  -0.264083 -0.114698  0.542296 -0.832321
-0.0949049   0.212564   0.126293    0.61241 0.00169434  -0.790539
0.128254 0.136015 -0.39752    0.688616    0.725126 -0.00055925
 0.146107 -0.112022  0.441852    0.789487   -0.613766 -0.00116812
 0.181063 0.0313179  0.476817   0.983063    0.18326 0.00153522
-0.263643 -0.197871   0.10507          -1 6.01826e-05 1.59072e-05
-0.180799 -0.150198 0.0459192 -0.000200776      0.96197    -0.273155
  0.142725   0.149037 -0.0766171 -0.844443 -0.104946  0.525265
0.124346 -0.13581 0.342939     0.636206    -0.771519 -0.000359797
  0.179594 -0.0370943   0.415072    0.976268   -0.216461 -0.00668031
-0.149996 0.0900416  0.495601 -0.0925742  0.0613899   0.993812
  -0.18473 -0.0708692  -0.142729 0.000924162    0.423656    0.905823
-0.0668587    0.16822   0.492801 -0.249438  0.658228  0.710293
-0.264149 -0.222573 -0.078235           -1  1.05296e-05 -1.31573e-05
  0.161062   0.165034 0.00148507 -0.920766 -0.389122 0.0278304
-0.239315  0.258896  0.223491  0.000167234            1 -4.26099e-06
0.146473 0.111769 0.419869     0.778187     0.628032 -0.000516573
 0.122368 -0.193692  0.102322  -0.776324 0.00228836   -0.63033
0.262799 0.112973 0.166576           1 4.70172e-05 2.50094e-05
-0.261653  -0.17438  0.164298          -1 7.34942e-06  9.8616e-06
 0.0159335 -0.0992905   0.157073  -0.166855 0.00114611  -0.985981
-0.130762  0.150803  0.264442 -0.000343742  0.000351243            1
 0.177883 0.0369888 -0.299054    0.969672    0.244395 -0.00275224
-0.224319  0.195284 -0.261969 0.000107143  1.6485e-05          -1
0.00381881   0.185439   0.379364 -0.0168437   0.999857 -0.0015349
0.152911 0.102064 0.411357    0.845944    0.533271 0.000484247
  0.200682  -0.263598 -0.0188159 9.65986e-05          -1 2.75886e-05
-0.111753 -0.144393 -0.423472   -0.622134   -0.782911 0.000607415
  0.26527 0.0120964 -0.212904            1 -4.26133e-07  7.52074e-05
-0.0749664   0.262552    0.24794 -8.96293e-06            1  4.83224e-05
 0.141022 -0.118585  0.348033   0.776511  -0.630104 -0.0003852
-0.150894  0.107456  0.119889 0.00466896  -0.646148  -0.763198
 0.263624  0.189063 0.0972427            1 -5.15707e-06  8.74872e-07
-0.0417592   0.265351   0.169532 0.0823994  0.969459 -0.230997
-0.160424  0.101644 -0.266131 -0.339905  0.201375 -0.918647
-0.0899685   0.195507  -0.120264   0.617308 0.00757861   0.786685
0.0553287 -0.202529 -0.147886 -0.351672 0.0055474  0.936107
0.0114403  0.184942  0.452278   0.0853618    0.996348 -0.00189264
-0.128146  -0.26349  0.133552 -4.35729e-05           -1  4.25716e-05
-0.122769  0.137672  -0.34478    -0.724756     0.689005 -0.000287566
 0.0103868 0.00533556  -0.499825  2.37884e-05 -2.28606e-15           -1
0.0806108 -0.166038  0.334819     0.494667    -0.869083 -5.71565e-05
-0.248786 0.0978657 -0.125973 -0.395694 -0.512004  0.762416
  0.175949   0.259934 0.00960117 -0.000255204            1 -3.11299e-05
-0.149485 -0.159434 -0.263366  3.3951e-05 0.000272211          -1
-0.140328    0.1892  0.072669    0.869668 7.76123e-05   -0.493637
  0.26225 -0.165755  0.169054           1 3.44539e-05 2.74792e-05
-0.0860474   0.262936   0.202031 3.93246e-06           1 1.85621e-05
-0.0996601  -0.159182  -0.328752  -0.518656  -0.854982 0.00121274
-0.0941644   0.121163   0.126842     0.60324 0.000734045   -0.797559
-0.00186947   -0.183877   -0.364952   -0.0590105    -0.998257 -0.000689387
 0.0900871 -0.0937945   0.500753 0.000127899  0.00012903           1
0.0597144 0.0696112  0.145795  -0.298776 -0.0819406  -0.950799
-0.0440768  -0.259287  -0.164428   0.22009 0.0074235  0.975451
-0.0701611   0.170222  -0.292565   -0.362642    0.931928 -0.00123521
    -0.2645   -0.250208 -0.00783793           -1  3.00609e-06 -8.62754e-06
-0.0781198  -0.120347   0.137272  0.525025 0.0100929 -0.851027
-0.0105799  -0.266487   0.156797 -0.00172193   -0.547967   -0.836498
 0.218165 -0.262889 -0.102905  0.000105243           -1 -1.35399e-05
 -0.147469   0.243515 -0.0649226   0.917247 0.00564211    0.39828
  0.222147 -0.0158168   0.261392 0.000125432 1.25323e-05           1
 0.262247 -0.224844  -0.22203            1 -1.67113e-05 -2.92879e-06
 0.250377 -0.027758 -0.260393    0.242627 5.99992e-05    -0.97012
-0.180933 0.0282164 -0.390719   -0.993245    0.116033 0.000482395
 -0.246329 0.00663468   -0.26195 -9.55767e-05  2.94947e-05           -1
-0.140772  0.261807  0.155528  1.61281e-05            1 -1.93243e-05
  -0.26354 -0.0802512   -0.17096           -1  5.20151e-05 -3.28666e-05
-0.242237 0.0752821 -0.142229 -0.00152766   -0.483193    0.875512
 0.259268 -0.073082 -0.245618           1 1.08471e-05 3.69635e-05
-0.154324  0.261619 -0.136959  7.22843e-05            1 -2.12503e-05
-0.0748442    0.19169   0.263065 -0.000114635  0.000422045            1
0.228265 0.157684  0.02309 -0.0119027  -0.984937  -0.172506
-0.0763474  -0.209688   0.138487   0.475283 0.00185819  -0.879831
 -0.193354 -0.0444562   0.262788 -0.904751 -0.180923  0.385606
0.0301254  0.184772  0.385589   0.169528   0.985525 0.00113443
   0.263045    0.182701 -0.00529916            1 -1.42896e-05  1.48842e-05
 -0.19885 -0.261157  0.106921 -7.70719e-06           -1 -2.23284e-05
 -0.179318 -0.0309858  -0.155414 0.00153028   0.227449   0.973789
 -0.263981 -0.0952252  -0.226432           -1  6.52278e-06 -1.29538e-05
 0.194015 -0.261677 -0.138238  5.38013e-05           -1 -6.71347e-05
0.255514 -0.26207 0.116953 0.000283501          -1 9.52147e-06
0.262827 0.187334 0.115243            1 -6.67046e-06 -7.75506e-06
 0.222953 -0.202633  0.262714 5.72092e-05   7.284e-05           1
 0.237609 0.0855154  0.130564 2.10442e-05   -0.565648   -0.824647
-0.132567 -0.197141 -0.263024 -2.67695e-05  0.000100984           -1
-0.217249  0.121909 -0.100764 0.00223219  -0.715254   0.698861
 0.230883 -0.264892 -0.231462 -8.73062e-05           -1  0.000127272
  0.233662 0.00800419  -0.158247 -0.00589803  -0.0500654    0.998729
-0.258889  0.159031 0.0104185 -0.0831829  -0.994426  -0.064785
 -0.011289 -0.0895221  -0.501075 -7.43068e-05  2.78302e-06           -1
-0.189836  0.129689 0.0880538 0.00146341  -0.826676  -0.562676
-0.0171017  -0.189498  -0.263515 -0.0317713  -0.239626  -0.970345
 0.119089 -0.140768 -0.446672   0.671172  -0.741301 0.00124497
0.261689 0.225924 0.261829    0.554747 2.98041e-05    0.832019
 -0.18476 -0.263488  0.145848 -3.90991e-05           -1  2.06635e-05
0.255101 0.129393 0.261464    0.393933 9.11998e-05    0.919139
    0.20089    -0.15469 -0.00751597 -0.000521451     0.995796    0.0915922
0.0231426  0.212928  0.262295 6.84631e-05 0.000131827           1
 0.0968332 -0.0539949  -0.500175 8.11572e-05 1.48778e-05          -1
  0.176769   0.261925 -0.0312137 -2.44561e-05            1 -2.02025e-05
-0.0423638  -0.230133   0.262179 -5.6141e-05  5.3157e-05           1
-0.0261858  0.0206494   0.158289 -0.00511573   -0.109277   -0.993998
-0.152128 -0.231506 0.0402908   0.979534 0.00416077  -0.201238
 0.174002 0.0918094 -0.129105 -0.000883169    -0.638777     0.769391
0.0404213  0.256898  0.161774 -1.34744e-05            1 -0.000561314
-0.121886  0.233308 -0.261752 -4.69863e-05  8.85366e-05           -1
 0.124759  0.138698 -0.272187  0.265952  0.292331 -0.918593
 -0.182423  -0.143746 -0.0627901 -0.00133556    0.897463    0.441087
0.192484 0.265629 0.121421  4.38329e-05            1 -6.26332e-05
 -0.252493  -0.262188 -0.0296642    -0.110532    -0.993873 -1.08836e-05
-0.203461  0.129801 0.0943692 0.000124047   -0.810928   -0.585147
 0.237978 -0.152549 0.0462168 0.00732919   0.961006  -0.276431
-0.123624 -0.261654 -0.244557  2.94365e-05           -1 -3.52093e-05
-0.0451752 -0.0048578   0.160355 -0.00820752   0.0979961   -0.995153
-0.169172 0.0785006 -0.267931 -0.651685  0.277353 -0.705962
-0.263053  0.145131 -0.191879           -1  1.25543e-05 -5.52806e-05
-0.152348 -0.102402 -0.476548   -0.831751   -0.555148 0.000388443
-0.109881 -0.249602  0.116329  0.673455 -0.235801 -0.700612
0.0286985 0.0039631  0.156526 -0.00691268  0.00119509   -0.999975
 0.263819  0.135822 -0.153957            1   5.7352e-05 -6.84891e-05
 0.260173 -0.252632 -0.137124            1   8.0277e-05 -3.49353e-05
 0.177095 0.0552305  -0.36054    0.959013     0.28336 -0.00112225
 0.245137  0.131678 -0.258288  8.7716e-05 9.50501e-05          -1
-0.0649289   0.153436   0.143536    0.358583 0.000720489   -0.933498
0.0593716 -0.259724   0.15088 -0.256619 -0.704832 -0.661331
  0.264161 -0.0667185   0.233492            1  4.96471e-06 -0.000128334
-0.118254 -0.240786  0.106883   0.735276 0.00219701  -0.677764
-0.198247 -0.226203  0.261353 -2.02331e-05  4.56084e-05            1
 0.263044  0.241772 0.0117959           1 0.000106341 1.45833e-05
  0.217825 -0.0765468   0.263553  0.00015226 3.44037e-05           1
  0.216302 -0.0407416  -0.261858 0.000176837 6.17181e-05          -1
 -0.14529  -0.26231 -0.219927 -2.44444e-05           -1  1.33837e-05
 0.183814 -0.022049  0.470804   0.986639  -0.162774 0.00696373
-0.0565241   -0.16257    0.14892   0.440535 0.00656176  -0.897711
0.0889065 -0.127971  0.499729 9.83396e-06 7.06525e-05           1
-0.104065  0.152181   0.37948   -0.603266     0.79754 0.000113536
-0.11837 0.141173 0.334981  -0.668614   0.743609 0.00104552
 -0.109123 -0.0703086   0.499996 -0.000125392  3.73065e-05            1
-0.164035 -0.261356  0.220647 -2.59896e-05           -1  3.76247e-05
 0.155852 -0.165832 -0.030844 -0.894039  0.379971  0.237312
-0.143567 -0.121617 -0.405221   -0.758869   -0.651244 2.73747e-05
0.0574291   0.18261   0.14692  -0.361343 0.00219656   -0.93243
-0.261617  0.193358  0.220889          -1 2.68553e-07 1.28045e-05
   0.13894  -0.189779 -0.0724746   -0.93017 0.00677196   0.367065
-0.0990239   0.135589  -0.497325 -0.00031675 0.000138002          -1
  0.233011   0.124676 -0.0977764 -0.000797492    -0.809762     0.586758
 -0.185558   0.141847 -0.0702782 -0.00148929   -0.893459    0.449143
-0.0445725  0.0775747  -0.156758   0.21207 0.0055643  0.977239
-0.260772 -0.223598 0.0149097           -1 -4.64923e-06 -3.80097e-06
 0.109982  0.247546 -0.262781 4.4406e-05   0.110473  -0.993879
-0.0351418  -0.132051  -0.155113   0.206832 0.00166817   0.978375
-0.0453326  0.0394214   0.153966 0.0936291 -0.166703 -0.981552
0.0623828 -0.175777 -0.392977    0.400928    -0.91611 0.000387072
 0.264044  0.186986 0.0991999            1 -1.08942e-05  8.67344e-06
0.0463491 -0.263092 -0.172659 -0.000114461           -1  5.31874e-05
 -0.24492 -0.106274  -0.26444 -8.28761e-05   6.2135e-05           -1
0.103505 0.182292 0.266261  2.6636e-06 0.000273868           1
  0.143859   0.182025 -0.0662926  -0.899876 0.00157563   0.436143
-0.0418573   0.172169   -0.15202   0.297325 0.00460153   0.954765
 0.160704  0.262423 -0.118883 1.29048e-05           1 2.56724e-05
 -0.25836 -0.250365   0.12703   -0.970134    -0.24257 1.70329e-05
  0.248577   0.264111 0.00854504 0.000253543           1 2.62017e-05
0.258311 0.249314 0.104773           1  0.00015394 5.59027e-05
0.0937099 -0.164745  -0.12753 -0.590577 0.0111729  0.806904
-0.249155  0.110488   -0.1163 -0.0017747  -0.719432   0.694561
  0.228264  -0.135373 -0.0818561 0.00582677    0.83383   0.551991
 -0.261906 -0.0426099    0.19658          -1 2.34398e-06 8.36708e-05
 -0.10276 -0.142641 -0.496757  -0.13959 -0.197503 -0.970313
 -0.16725   0.14315 0.0715021 0.00767992  -0.906788  -0.421517
 0.200021  0.151663 0.0431387 0.0123668 -0.954163 -0.299031
 0.260428 -0.133137  0.118433           1 0.000195116 0.000126115
  0.259807  -0.159694 -0.0346063  0.918316  0.385729 0.0889286
-0.0908605   0.260513  -0.145802 0.207674 0.918802 0.335669
-0.130605 -0.263953  0.241893 -8.40033e-06           -1  7.44689e-05
 0.0360452 -0.0993782  -0.153352   -0.188864 0.000691467    0.982003
-0.218268  0.262181  0.141792  3.68084e-06            1 -2.80941e-05
  0.157143  -0.257784 -0.0455294 -0.535198 -0.832537  0.142987
  0.26169 0.0718856 -0.213315           1 1.75509e-05 0.000113291
 -0.253112   0.263563 -0.0868375   -0.919148    0.393913 1.16689e-05
0.000730976   -0.220083    0.160596  0.0781676 0.00493908  -0.996928
 0.215407 -0.123216 0.0984484 -0.00159594    0.785588   -0.618748
  0.15749 -0.196591 0.0192295   -0.988704 0.000634088    -0.14988
0.0471643   0.25885 -0.166736 -0.000210898            1  0.000622103
-0.172572 0.0670047  0.429198  -0.902993   0.429655 0.00050743
-0.0350598    0.14151  -0.500038 9.90258e-07 2.15755e-05          -1
 0.186276 0.0968511 -0.263948 0.000163154 5.88535e-05          -1
 0.142343 -0.214149  -0.26316 9.86164e-06 9.96092e-05          -1
-0.264003  0.157147 -0.109915           -1  6.26392e-07 -6.56471e-05
-0.261626 0.0900407   0.22798          -1  2.6636e-05 2.10658e-05
 0.187575 0.0082106  0.309212   0.998707 -0.0504928 0.00593857
 -0.263188 -0.0466384   0.229446          -1 2.00162e-05 3.60811e-05
-0.147782  0.263103 -0.123718  0.000101151            1 -7.07621e-05
0.0696067 -0.263336  0.172245 -9.90366e-05           -1  7.14792e-05
0.0349998  0.177083  0.486659     0.177939     0.984041 -0.000189325
   0.2101 -0.261596  0.248007 -5.89923e-05     -0.99388     0.110467
 0.210396 -0.166634  -0.26249 5.90914e-05 3.20106e-05          -1
 -0.131347  -0.164159 -0.0842856   0.845351 0.00310767   0.534202
  0.212741 -0.0908786  -0.130217 0.00319716   0.583803   0.811889
-0.0768646   0.159509  -0.499553 -0.217564  0.509679 -0.832402
-0.0587484  -0.172933   0.356754    -0.341964    -0.939713 -5.38175e-06
-0.0815292  -0.180653   0.135541   0.499982 0.00367539  -0.866028
0.0673358 0.0229689 -0.157247 9.39296e-05   -0.193707    0.981059
 0.227483 0.0771743 -0.264431 0.000158165 4.62815e-05          -1
0.00827784  -0.265197   0.222436 1.75429e-05          -1 8.58398e-05
0.0831377 -0.119354 -0.500337 7.73239e-05 7.24872e-05          -1
-0.166877 -0.261809    0.2301 -1.01668e-05           -1  3.98765e-05
 0.133829 0.0808394 -0.135229 -0.00140722   -0.478586     0.87804
-0.061208 -0.111991  0.146494   0.459642 0.00635229  -0.888081
    0.1801 -0.0250139   0.506083 0.000340105 0.000212498           1
 0.140344  0.120657 -0.451352   0.744025   0.668151 0.00111937
 0.182438  0.129311 -0.263766 0.000129901 0.000140454          -1
 0.0486378 -0.0997511   0.500299 -1.67484e-06  7.98351e-05            1
-0.114738 -0.262878   0.21076 -2.7324e-05          -1 7.36342e-05
-0.00775605     0.26489    0.198968 -6.53349e-05            1  0.000160961
 0.166468  0.131192 0.0968861 -9.07538e-05    -0.830433    -0.557118
 0.137204  0.115402 -0.493336  0.71329 0.576333 -0.39882
 0.0191805 -0.0327377   0.499991 -5.52853e-05  5.52855e-05            1
 0.185842 -0.100462 -0.261983 0.000179153  0.00010619          -1
-0.0364109  -0.186086   0.277483  -0.205545  -0.978445 -0.0199122
0.0491112 -0.173463 -0.496732  0.262466 -0.788991 -0.555522
 0.093413 -0.158807 -0.315536    0.523633   -0.851942 -0.00192822
 0.214749  0.174025 -0.263027 7.57677e-05 6.14726e-05          -1
  0.261922 -0.0986841   0.188791           1 5.60086e-05 1.10956e-05
  0.21314 -0.133644 -0.261985 0.000100286 5.58384e-05          -1
-0.0882565   0.196915  -0.263702 -0.000130035  0.000266587           -1
 0.190474 -0.145252 -0.261745 9.49576e-05 6.95504e-05          -1
-0.145676  0.137763 0.0779816  0.719575 -0.287017 -0.632324
 0.158796   0.26324 -0.220535  2.76327e-05            1 -1.25749e-06
-0.162991 0.0883245   0.13048 0.00736759  -0.596801  -0.802355
 0.192973 0.0151841  0.263952 0.000322139 7.62616e-05           1
 0.0669774 -0.0872443  -0.142218  -0.394529 0.00193563   0.918881
-0.0492993   0.136943   0.499066 -3.72694e-05  0.000136612            1
-0.100236  0.245238   0.12436  0.550873  0.229288 -0.802475
 0.154768 -0.213465 0.0353679   -0.980611 0.000728791   -0.195964
 0.105887  0.148942 -0.475451    0.605337    0.795968 -0.00123486
-0.0913202  0.0765779   0.500258 -8.20434e-05  5.41145e-06            1
  0.264929   0.176456 -0.0798715            1  5.53358e-05 -8.26911e-05
-0.0810566  -0.245223   0.137774   0.452863 0.00148414  -0.891579
 -0.174235 -0.0666653   0.356452    -0.951724    -0.306954 -4.29118e-05
0.0980293  0.231128 -0.123305   -0.54015 0.00466053   0.841556
-0.165849  0.263128 -0.234245 -6.74976e-05            1 -2.22243e-05
-0.00539392  -0.0723799   -0.501119 -3.76947e-05  3.82766e-05           -1
  0.137186 -0.0948233   0.125972 0.00407869   0.606634  -0.794971
-0.241278 -0.175496 -0.263755 5.39997e-05 5.92715e-06          -1
 0.168235 -0.266585 -0.122038  3.76174e-05           -1 -1.69036e-05
0.134005 0.151994 0.268496 0.000308641  4.3574e-05           1
  0.163515 -0.0853882   0.301051      0.89446    -0.447148 -0.000434453
-0.162625 0.0911502 -0.265074 -0.872902   0.42706 -0.235926
 -0.221355   0.144675 -0.0633537 -0.000407443    -0.923194     0.384335
 0.0134577 -0.0743447   0.156493  -0.141247 0.00132303  -0.989973
-0.0906267   0.160089  -0.437453   -0.501038    0.865425 0.000518923
 -0.261254  -0.240316 -0.0995911           -1  6.92174e-06 -1.59975e-05
-0.101881 -0.209137 -0.261832 -2.38493e-05  6.40573e-05           -1
-0.262354  0.122501 -0.163395           -1  3.59322e-05 -2.51131e-05
 -0.220738 -0.0762658    0.13819 0.00134918   0.460166  -0.887832
-0.0149888   0.260435  -0.248594 -4.63171e-05            1  -0.00010569
 -0.160135  -0.258384 -0.0730321 8.73161e-05          -1 0.000153104
0.0686405 -0.120828  0.141463  -0.396988 0.00234615  -0.917821
-0.0284081   -0.15202  -0.154855  0.181198 0.0013303  0.983446
  0.131778  -0.222164 -0.0876346  -0.812563 0.00321456   0.582864
-0.262517  0.218559 0.0426386           -1   9.5691e-06 -1.36456e-05
  0.221505 -0.0226542   0.156436 -0.00551185    0.215425   -0.976505
-0.014759  0.231703 -0.261563 -5.87914e-05  0.000101208           -1
-0.0838009   0.262624   0.182161  7.06772e-05            1 -4.50176e-05
-0.138378 -0.139857 -0.267377 -0.266836 -0.291166 -0.918706
-0.0314041   -0.18312   0.294303   -0.208823   -0.977943 -0.00453954
 0.260257  0.257586 -0.070306    0.707243     0.70697 3.68394e-05
0.0271002 0.0342829 -0.499932  1.21775e-06 -2.12481e-18           -1
0.0652335  0.157135 -0.499888   0.14911  0.362004 -0.920173
-0.258048 0.0822159 -0.150147          -1 1.53432e-05   0.0001348
-0.0486227  -0.177361   0.355512   -0.265269   -0.964175 0.000243823
0.137258 0.263663 0.192217 -5.39075e-06            1  5.57055e-05
  0.240637   0.158404 -0.0211598 -0.000346508    -0.982758     0.184898
-0.263579  0.213393 0.0330955           -1  1.10187e-05 -1.38616e-05
-0.0871405  -0.254911   0.255117 -3.83753e-05  3.72863e-05            1
 0.162717 0.0848516  0.311697     0.888864     0.458169 -0.000880721
0.0930957 -0.148729 -0.127276  -0.569617 0.00758951   0.821875
0.0857525 0.0808831   0.13594 -0.124679 -0.393629 -0.910775
 0.236962  -0.12574 -0.262516 3.47962e-05 5.58406e-05          -1
-0.0529929   0.176801  -0.334181   -0.301242    0.953545 -0.00209209
0.0817312 -0.263882 -0.242285  1.56726e-05           -1 -7.48003e-05
 0.157666 0.0983064 -0.434293     0.854027     0.520227 -0.000881626
 0.181513 -0.129923 -0.263469   0.0001693 0.000126041          -1
  0.189032   0.264686 -0.0357556  3.12986e-05            1 -0.000112138
 0.263198 -0.173209  0.144803           1 6.72564e-05 3.57348e-05
0.0903286 -0.160693 -0.396224      0.46728    -0.884109 -0.000533095
 -0.21535 -0.262264 -0.210392 4.67611e-05          -1 1.90693e-05
 -0.183257 0.00538878  -0.339734   -0.999966  0.00792962 -0.00243424
-0.137604 -0.196793 0.0771608    0.85509 0.00198433  -0.518476
   0.10599 -0.0870442  -0.131419 0.00231021   0.555113   0.831771
 -0.16916  0.263046 0.0992118  0.000137562            1 -0.000156942
-0.240195 -0.260574  0.194769 3.82922e-06          -1 3.79057e-05
 -0.129547   0.127662 -0.0999731 0.0852617 -0.746045  0.660414
 0.142369   0.14236 -0.267916 1.04351e-05 0.000158354          -1
0.0201287 0.0887712 -0.498938 7.88993e-05 1.22947e-06          -1
-0.0562166  -0.175679  -0.485212   -0.270033   -0.962838 -0.00508677
 -0.143708 -0.0716593   0.497201 9.59061e-07 6.88709e-05           1
  0.13001 -0.156525 -0.264124 0.000244974 0.000203418          -1
  0.08589 -0.148732  0.133285  -0.56498 0.0165028  -0.82494
 -0.104371 -0.0833745  -0.499937 -0.000215053  0.000106443           -1
-0.0817859  -0.164857   0.401438    -0.410921    -0.911671 -0.000783051
 0.163297 -0.197549 -0.263326 5.08892e-06 3.01595e-05          -1
0.0494645 -0.183093  0.283004      0.28974    -0.957105 -0.000487338
-0.123688 -0.211141 -0.101395   0.760584 0.00081251   0.649239
-0.254494  0.230702  0.259182           -1  4.66536e-05 -4.38453e-06
0.0603949  0.253083  0.158112 -0.315778 0.0127531 -0.948747
 -0.069593 0.00937115   0.500172 -5.47751e-05  3.72598e-07            1
 -0.155265 -0.0982428  -0.420099    -0.845784    -0.533525 -0.000192037
-0.139986  0.119922  0.440522    -0.739358     0.673312 -0.000747945
 0.263455 0.0623958  0.203756            1  2.35156e-06 -1.68998e-05
 0.250839  -0.10525 -0.264161    0.832077 4.02282e-06    -0.55466
0.263127 0.198643 -0.15197           1 2.36465e-05 7.55951e-05
-0.182391 -0.265071   -0.1043 -9.53401e-05           -1  4.41361e-06
0.0093508 -0.186243 -0.268339 0.0485712 -0.551521 -0.832746
 -0.20932 0.0290772  0.156819 0.00170992  -0.211409  -0.977396
-0.133947 -0.129865  0.330294   -0.724487   -0.689288 0.000132999
0.0817167 -0.164598 -0.336001    0.439079   -0.898448 0.000780494
-0.104182 -0.103627  0.123131 0.259508 0.569832 -0.77971
-0.0746192    0.16713  -0.447274   -0.357617    0.933868 0.000213732
 0.259497 -0.131077  0.261434   0.832105 6.0271e-05   0.554619
0.0607098  0.261229 -0.218393 -4.69523e-07            1 -6.10987e-05
0.0446464 0.0560449 -0.152056   -0.294546 0.000245091    0.955637
 -0.0414189 -0.00422765    0.498109 -1.20181e-05  4.22899e-05            1
0.0363935  0.181146 -0.463766    0.207039    0.978319 -0.00521844
 -0.121083   0.212474 -0.0956214    0.789465 0.000282813    0.613795
-0.233384 -0.262081 -0.222874 8.89069e-05          -1 3.76226e-05
   0.13692 -0.0493458  -0.499768 3.82931e-05 1.02222e-05          -1
-0.0171344   0.169813   0.498765 5.5686e-05 0.00101503   0.999999
 -0.249045   0.260231 -0.0875853 -0.000202078            1  1.30144e-05
  0.26395  0.222572 0.0969292            1  5.43004e-06 -1.96191e-06
-0.164541  0.262461 -0.239415  -6.3506e-05            1 -3.25109e-05
-0.263299 -0.106576 -0.189025           -1  4.90702e-06 -1.49898e-05
  0.205454 -0.0126845   0.264424 0.000355014  7.1458e-05           1
0.0880355 -0.161274 -0.351512     0.452903     -0.89156 -0.000512493
 0.140572 0.0380021  0.154036 0.00110693  -0.226325  -0.974051
0.0584851  0.176136  -0.41941     0.304974      0.95236 -0.000608508
0.00998263  0.0311292     0.1561 -0.117792 0.0169101 -0.992894
-0.0176344 -0.0469729   0.500553 2.30072e-05 1.64422e-05           1
-0.164583  0.243224  0.262378 8.97965e-05 5.40791e-05           1
-0.261741  0.208269  0.201499          -1 2.70276e-05 1.38408e-05
-0.261654  0.190402  0.182993          -1 2.88803e-06 5.87545e-06
-0.259417  -0.26172 -0.189887    -0.706608    -0.707605 -0.000576424
  0.246555   0.260102 -0.0513113   0.00031903            1 -9.61908e-06
 0.131082 -0.172876  0.261386 9.90781e-05 0.000162668           1
  0.154679   0.255662 -0.0197265 -0.239674  0.970027 0.0400532
 -0.192415  -0.263541 0.00476298 4.30735e-05          -1 6.18323e-05
-0.261736  0.048117 -0.188692           -1  2.82515e-05 -9.88627e-05
  0.156298   0.164423 -0.0435013  -0.965169 0.00224431   0.261618
 0.260485 -0.240783 -0.191367            1  2.99489e-05 -9.55916e-05
0.118857 0.139785 0.305297     0.647865     0.761755 -0.000312543
 0.127239  0.204089 0.0918686 -0.808811 0.0108164  -0.58797
  0.155165  -0.204671 -0.0234853  -0.991733 0.00440248    0.12824
 0.245074 -0.135148    0.2626  7.2471e-05 2.72629e-05           1
   0.21451 0.00406533  -0.263681 0.000217983 3.93894e-05          -1
-0.0857367 -0.0875426  -0.501217 -6.94704e-05  0.000101358           -1
0.0315042  0.162497 -0.156027  -0.246852 0.00213239   0.969051
   0.2026  0.261464 -0.177655  0.000101704            1 -5.74761e-05
  0.11507 -0.142199  0.474727  0.669405 -0.742892 0.0029066
-0.132216  0.018684  -0.15759 -0.000369974    -0.189934     0.981797
 0.235975 0.0519066 -0.264888 0.000147287 6.51379e-05          -1
 0.130272 -0.130152 -0.318311    0.679686   -0.733503 4.88849e-07
 0.108179 0.0754313  0.499449 -9.66099e-06  8.73466e-05            1
-0.0850977   0.163185   0.465557    -0.458028     0.888938 -0.000272207
 -0.26511 0.0545007  0.227562          -1 5.97516e-06 2.20842e-06
-0.262001  -0.24693  -0.18094           -1 -1.63223e-05 -1.82098e-05
0.0949987 -0.262722 -0.167479 -5.67012e-07           -1 -7.26904e-05
-0.0503938   0.149992   0.149411   0.303846 0.00185925  -0.952719
  -0.163822   -0.161354 -0.00720784     0.706363      0.70785 -0.000345961
-0.0255892  -0.262031  -0.236312  6.97192e-05           -1 -2.10715e-05
-0.0783642    0.26453  -0.240977 -1.62084e-05            1 -8.20515e-05
 -0.24079 -0.262606 -0.093862 -0.000138057           -1 -1.23001e-05
  0.260402    0.23255 -0.0196767           1   0.0001156 -1.1216e-05
 -0.188752 -0.0604408  -0.146965 0.00193509   0.384908   0.922953
  0.156285   0.206588 0.00177213   -0.999946  0.00817141 -0.00636351
0.00818562  0.0973918  -0.498417 6.30949e-05 5.25807e-06          -1
 -0.262729  -0.201406 -0.0627894           -1  2.92357e-05 -2.42835e-05
-0.0256496  -0.262723  -0.197772  0.000100551           -1 -0.000110608
0.189011 0.263617  0.21084 2.76358e-06           1 7.98657e-05
 0.263654 -0.116539  0.178705           1 7.31784e-05 7.49352e-05
-0.0724591   0.196749   0.262199 -0.000112143  0.000412871            1
-0.263445   0.22203  0.124349          -1 1.08664e-05 1.65772e-05
 0.251451 0.0416675   0.15559 0.00401735  -0.219684  -0.975563
  -0.26361 -0.0987939   -0.18039          -1 9.01146e-06 1.14322e-05
  0.238361 0.00245288   0.160114 0.000880271  0.00857821   -0.999963
 0.262092 0.0969482 -0.233281           1 2.61447e-05 8.40654e-05
-0.167221 -0.262089 -0.195344 -7.04588e-05           -1 -6.29377e-05
 -0.189163  -0.261361 -0.0634191 -3.64529e-05           -1 -4.53681e-05
 0.262923 -0.180348  -0.18844            1  4.80831e-05 -4.59244e-05
 0.247034  0.136372 0.0845087   0.10001  -0.83862 -0.535457
0.0119885 -0.184301  0.394441     0.102696    -0.994712 -0.000939423
0.102102 0.186006 0.119604 -0.668992 0.0115229 -0.743181
0.0160633 -0.011271 -0.498659 1.52728e-05 3.03601e-05          -1
-0.222194 -0.262132  0.157232 -0.000111608           -1  3.81475e-05
-0.264115 -0.156922  0.223371          -1 2.04494e-05 4.24888e-05
  0.09802 0.0646277  0.500276 1.10191e-05  8.7893e-05           1
-0.0934689  -0.186114  -0.262916 -0.000173055  0.000363044           -1
-0.195855 -0.257661 -0.248341 -4.11519e-05           -1 -1.79653e-06
 -0.15001  0.115021 -0.272518   -0.820242     0.57201 -0.00288109
 -0.185522 -0.0266305  -0.321564    -0.98902   -0.147739 -0.00343509
  0.13178 -0.128908  0.340408     0.690058    -0.723754 -9.44839e-05
 0.262159 -0.142119 -0.140576            1  7.99479e-05 -9.69712e-05
 -0.20151 -0.163598  0.262067 -0.000167605  3.97552e-05            1
0.0729363 -0.190006  0.141236  -0.441842 0.00263925  -0.897089
-0.262751 -0.128507  0.176251          -1 3.18813e-05 2.38858e-05
0.0492905 0.0926726  -0.14969  -0.342677 0.00257596    0.93945
  0.114035 0.00902691    0.15671 -0.00185686  -0.0887361   -0.996053
-0.0759819  -0.261863   0.208898 7.78603e-06          -1 4.42014e-05
-0.125488  0.148036 -0.269191 -0.153893  0.188541 -0.969933
 0.151084 -0.201568  0.263393 -5.89054e-05  7.35073e-06            1
0.0181886 -0.264592 -0.212916 -0.000118472           -1  4.84376e-05
0.0424721   0.25592  -0.24787 -3.90094e-06            1 -0.000100513
 0.171622 0.0606979  0.262664 0.789811 0.290108 0.540403
-0.026151  0.262149  -0.24045 -3.63808e-05            1 -0.000117634
-0.0973938  -0.262114   0.232871 -2.41669e-05           -1  7.40681e-05
-0.255916 -0.260423 -0.122611   -0.707121   -0.707093 4.54453e-05
 -0.15223  0.247499 0.0372237   0.984778 0.00695177  -0.173678
 0.0875961 -0.0602885   0.144132 0.000694968    0.242593   -0.970128
-0.132997 -0.260936  0.102605  0.189029 -0.969577 -0.155529
0.0376498 -0.183381 -0.275463  0.227373 -0.942918 -0.243326
-0.0668255    0.26046   0.159966  0.000295173            1 -0.000436783
-0.129207 0.0432857  0.153937 -8.05384e-05    -0.234146    -0.972202
-0.103625   0.12739   0.49977 -0.00012061 0.000104707           1
 0.182025  0.102668 -0.120178 -0.00723922   -0.691595     0.72225
0.0757492 -0.123124 -0.138342  -0.402869 0.00538563   0.915242
  0.12143 -0.189866 -0.100427  -0.818589 0.00923576   0.574306
0.0944982 -0.262354 -0.195513 -1.39298e-06           -1 -7.15957e-05
 0.207064  0.231202 -0.266404 -9.64831e-06  9.67331e-05           -1
0.169066 0.250035 0.257713 -0.000121106     0.394027     0.919099
-0.258549 -0.126119 -0.263957    -0.55474 4.79442e-05   -0.832024
   0.220472   -0.156259 -0.00960767 0.000109526    0.997608   0.0691205
-0.202912 -0.162465 -0.262283 -0.000115022  6.86005e-05           -1
  -0.1879 0.0730661  0.267336 -0.000248008  0.000104199            1
 -0.131279 -0.0478438  -0.151472 -0.000500699     0.228847     0.973462
0.0545979  0.169889 -0.484615   0.325159   0.945653 0.00342162
0.265008 0.233799 0.237021            1  1.15545e-06 -6.11407e-05
0.0125818   0.18521  0.455788   0.0660147    0.997815 -0.00267557
-0.173288  0.156875 0.0131901 0.00855297  -0.994684  -0.102615
 0.150309 -0.106532 -0.316235    0.810703   -0.585457 0.000250097
0.00763511 -0.0376807   0.500296 -2.1243e-05  7.2091e-05           1
-0.260333 -0.242017  0.124159           -1 -2.35504e-05 -1.60516e-05
-0.139225 -0.260396 -0.258257 -1.10839e-05     -0.83206    -0.554686
-0.260438  0.187896  0.167559          -1 4.03265e-06 2.90095e-05
-0.262578 -0.103402 -0.225638           -1  2.50325e-05 -1.43633e-05
 0.200954  0.207755 -0.264241 -2.48245e-05  6.96211e-05           -1
-0.260491 -0.250588 0.0434158           -1 -2.13103e-06 -3.90157e-06
  0.131564   0.203055 -0.0876905 -0.817454 0.0018621  0.575991
 -0.166124 -0.0739614  -0.419838    -0.902205    -0.431308 -0.000743458
0.0741963 -0.228369  0.261929 4.87199e-05 3.31227e-05           1
 0.181606  0.156234 0.0311282 0.0101564 -0.988943  -0.14795
 0.0671207 -0.0736681   0.146835  -0.392978 0.00731962  -0.919519
  0.166912 0.00978735   0.157387 -0.00122874   0.0211765   -0.999775
  0.124099  -0.171227 -0.0971836  -0.809165 0.00930708   0.587508
 0.263034 -0.146026  0.197956            1  1.04859e-06 -4.45016e-05
  0.23051  0.261204 0.0463995 0.000260411           1 8.57242e-06
-0.205579  -0.10939  0.264297 2.70001e-06 8.95566e-05           1
-0.142218 -0.263482  0.205931 -5.23106e-05           -1  4.92418e-05
-0.117287   0.14191 -0.353198   -0.619812     0.78475 0.000425607
0.178614 0.037287 0.438738    0.979184    0.202903 -0.00531915
-0.0824494  -0.144647   0.134751   0.495296 0.00162542  -0.868723
  0.25355  0.238956 -0.255619 0.000498173 0.000492748          -1
-0.167464 -0.158338 -0.016858 -0.0179412    0.98831   0.151395
 0.181114 0.0157904  0.408883     0.987676     0.156514 -0.000291478
-0.117707  -0.14065 -0.383455    -0.636664    -0.771142 -0.000456026
-0.127338  0.261311 -0.103762 0.529301 0.709133 0.465802
-0.259048 -0.248401 0.0983715   -0.993877   -0.110492 2.83025e-05
0.0767416 0.0567094  0.501465 5.90178e-05 5.16328e-05           1
  0.264634 -0.0994465  -0.176039           1 5.57851e-05 2.39388e-05
 0.226084  0.148677 -0.262072 0.000132722 4.27983e-06          -1
-0.176708 0.0141885 -0.496453 -0.701282 0.0733119 -0.709104
 0.262805 -0.145881  0.206791            1  1.21773e-05 -9.07068e-05
 0.046042  0.178861 -0.469987     0.20704    0.978318 -0.00521225
 0.0382737 -0.0783942   0.150401  -0.251218 0.00265225  -0.967927
  0.226631 -0.0829131    0.26365 0.000157091  4.4791e-05           1
-0.0826314  -0.112378  -0.134664   0.525996 0.00215964   0.850485
-0.185834  0.182515  0.263811 4.54043e-06  5.7815e-05           1
-0.182372 0.0364724  0.282898   -0.981755    0.190134 -0.00230983
 0.0274952 -0.0796588  -0.154307   -0.143696 0.000376421    0.989622
0.00609458  -0.208208   0.159726  0.0238014 0.00134555  -0.999716
  -0.158958 -0.00814263    0.500538 -9.72532e-05  3.39374e-06            1
 -0.171929 -0.0648697   0.328341   -0.93153  -0.363663 -0.0011382
-0.258411  0.189837  0.177114           -1 -2.18938e-06  6.44967e-06
-0.263223 -0.175437 -0.191662           -1  1.70064e-05 -1.19234e-05
  -0.26266    0.19348 -0.0529572          -1 6.44438e-05 5.65147e-05
 0.215738 -0.146576 0.0596166 0.00202331    0.93725  -0.348652
 -0.262854  -0.176806 -0.0521717           -1  6.62047e-05 -2.58881e-05
-0.156577  0.234218 0.0226143   0.980892 0.00838663  -0.194372
0.180327 0.167862 0.262406 6.73816e-05 7.64301e-05           1
 0.115411 -0.150877  0.109843   -0.69097 0.00337532  -0.722876
 0.118255  0.262817 -0.255804 3.77951e-06    0.970134   -0.242571
 -0.120494 -0.0678695  -0.144397 0.00908621   0.437544   0.899151
-0.0807993  -0.165321   0.402209    -0.410921    -0.911671 -0.000786229
0.0518594 0.0507453 -0.152404 -0.105898  -0.34799  0.931498
-0.0924832  -0.160841  -0.265534 -0.180467  -0.35202  -0.91843
 0.119231 -0.140513 -0.396582     0.649924    -0.759999 -0.000573346
0.0696066 -0.261724 -0.195849 -1.59961e-05           -1  -5.2466e-05
  0.231845  -0.264017 -0.0657737 0.000211638          -1 5.11846e-06
 -0.266307   0.234842 -0.0635916    -0.993884     0.110433 -1.32882e-05
 0.204979  0.152393 0.0432264 0.00960938  -0.956991  -0.289958
 0.124987    0.2634 -0.177708  6.18307e-05            1 -6.46396e-05
-0.0976097   0.156078  -0.455814  -0.511386   0.859343 0.00374877
 -0.171744 -0.0545242   0.496477  -0.231462 -0.0741653   0.970013
 0.226883 -0.116338 -0.106581 0.00243486   0.714677    0.69945
-0.0787726   0.259036   0.141814  0.507963  0.223963 -0.831753
 0.112205 -0.140978 -0.486494   0.67607 -0.736836 -0.001182
-0.0682392  -0.120903  -0.143078   0.466961 0.00815027    0.88424
0.0946261  0.263386  0.214767 1.21137e-05           1   5.411e-05
  0.220435 -0.0992941  -0.262018  0.00011633 6.96762e-05          -1
 -0.157248   0.168849 0.00370865   0.69584 -0.718011 0.0163524
 0.113526 -0.161379 -0.109982  -0.678777 0.00373472   0.734335
 -0.166993 -0.0145192   0.497435 -0.00014875 2.40392e-05           1
 0.265702  0.202562 0.0378534            1   2.6488e-05 -4.46725e-05
0.104084 0.155773 0.366283     0.533565     0.845759 -0.000428884
0.228684 -0.23508 0.263092 -8.54286e-05  0.000183521            1
 0.136184 0.0344534  0.152896 0.000679678   -0.226106   -0.974102
-0.181246 0.0349953 -0.309474  -0.985281   0.170937 -0.0011376
0.228422 0.263798 0.046878  0.000155288            1 -4.37766e-05
-0.0288699    0.12394  -0.500513 -1.37611e-08  1.75303e-06           -1
-0.143797  0.107616 -0.488943  -0.33036  0.212356 -0.919656
 0.261154 0.0202643  0.245812           1 0.000130237 1.22913e-05
-0.0121732  -0.220107  -0.156898   0.077066 0.00310678   0.997021
0.0347679  0.179853  0.500971 0.0346094  0.240343  0.970071
-0.139579 -0.125555  0.289708  -0.731783  -0.681533 0.00237453
  0.171023 -0.0694682   0.349246   0.930387  -0.366567 0.00288951
 0.140684 -0.246291  0.077945  -0.885151 0.00430637  -0.465283
 -0.182028 -0.0239174  -0.334008   -0.985093   -0.172025 0.000493905
0.100791 0.255995 0.257534 8.08694e-05    0.707088    0.707125
-0.0217607   0.259861   0.243488 -1.20021e-05            1  8.89865e-06
0.112063 0.249536 0.259852 0.000102219 5.64713e-05           1
-0.120235 -0.258497  0.124413 -9.00353e-05           -1 -6.38121e-05
   -0.25928 -0.00395887    0.172351  -0.97024 0.0265775 -0.240684
0.105818  0.15655 0.501696  0.54652 0.829196 0.117262
-0.153275  0.100696  0.118469 0.00322328  -0.638194  -0.769869
-0.141906 -0.263126   0.20976 -5.29595e-05           -1  5.31118e-05
0.0358236 -0.253033  0.262663 3.23316e-05   -0.393971    0.919123
0.108424 0.263316 0.213613 1.27613e-05           1 5.53322e-05
 0.156748  0.255739 -0.078197 -9.13405e-05            1  0.000148426
0.0243496  0.262554  0.221368  3.05546e-05            1 -4.29752e-08
  0.184617 -0.0820916   0.135085 -0.0100415   0.575048  -0.818058
0.0945668 -0.154236  -0.48543  0.506341 -0.854724 -0.114305
 -0.21163 -0.128473  0.263629 -7.46485e-08    9.283e-05            1
  0.160435 -0.0908262  -0.287531  0.888474 -0.458891 0.0057193
 0.150933  0.246351 0.0516917   -0.94285 0.00816888  -0.333117
-0.147094 -0.101611   0.47307   -0.811608   -0.584199 -0.00194859
  0.146136 -0.0524429   0.497608 0.000300349 4.12665e-05           1
-0.0152156  -0.265143   0.195192 -2.60849e-05           -1  0.000154372
0.00380754  -0.138735  -0.159294  -0.0238397 6.95334e-05    0.999716
 0.236008  0.262837 0.0952887  0.000289094            1 -1.67004e-06
 0.0568659 0.00781443  -0.157849 0.00305312 0.00096176   0.999995
-0.13893 0.257405  0.25847 2.39312e-05    0.554675    0.832067
-0.261469   0.24341 -0.252083  -0.999997 0.00174468 -0.0014684
 -0.192742 -0.0926137  -0.263919 -0.00050739 0.000374984          -1
-0.122092 -0.140458 -0.347099    -0.647528    -0.762042 -0.000444449
0.149855 0.103244 0.493758 0.826914 0.551206 0.111288
0.0999626 -0.154394  0.412547     0.508501    -0.861061 -0.000790962
 0.176988 0.0687943 -0.267488  0.516757  0.216468 -0.828314
-0.183761 -0.221696 -0.261783 -1.32587e-05  6.14383e-06           -1
-0.259654 0.0640155 -0.153456  -0.83119 -0.226356  0.507824
-0.0350925    0.13371   0.153611  0.309054 0.0029886  -0.95104
-0.261404 -0.156284 -0.057466 -0.969741   0.22523 0.0942009
  0.231384 -0.0922714  -0.130775 0.00245734   0.585585   0.810607
 -0.144279 -0.0714514   0.141417 -0.0031938   0.427078  -0.904209
-0.0915071   0.263676   0.186721  1.29564e-05            1 -8.39642e-06
0.263847 0.095495 0.189859           1 3.56136e-05 5.77176e-05
-0.119525  0.256934 -0.255173 5.10749e-05  5.9332e-05          -1
 0.258851 -0.152627  0.063494   0.993874  0.0999731 -0.0471063
 0.263757 -0.202715  -0.14628            1  3.63098e-05 -3.25251e-05
 0.264558  0.211855 -0.220532            1   8.9443e-06 -7.26839e-07
  0.105384 -0.0612188   0.144814 0.00185215   0.371471  -0.928443
-0.237033 -0.251647 -0.260086 2.05829e-05 1.22081e-05          -1
  0.08659 -0.167574  0.268699  0.463331  -0.88054 0.0998708
  -0.18386 -0.0708482  -0.142763 0.000923919    0.423654    0.905824
0.0662686  0.174787 -0.366478    0.350348    0.936619 0.000285742
0.0939682  0.264134  0.216472 3.78281e-06           1 5.21027e-05
-0.0288855  -0.055601   0.498561 1.38264e-05  1.8182e-05           1
-0.0996947  -0.149479  -0.122838   0.629461 0.00291821   0.777027
 -0.220689   0.154382 -0.0294381 -0.00457005   -0.994079    0.108561
  -0.15823  -0.264444 -0.0615002   0.67768 -0.704958  0.209245
   0.12646   0.191203 -0.0936397  -0.836519 0.00192631   0.547934
-0.136016  0.128249 -0.275193 -0.639068  0.731245 -0.238481
 -0.180217 -0.0430381  -0.433644    -0.979436    -0.201756 -0.000107078
0.00521066   0.258401   0.257853 7.75248e-06    0.832076    0.554661
    0.26361 -0.00171798    0.216098            1  3.17602e-05 -2.35257e-05
 0.145239 -0.081102  0.500835 -7.27989e-05   6.3118e-05            1
0.0270322  0.217955 -0.262764 -1.08521e-06  0.000174257           -1
  0.134977  -0.161795 -0.0816093  -0.843112 0.00533215   0.537711
 -0.143469  -0.261585 -0.0843842   0.10087 -0.993784 0.0471016
 0.126151  0.128737 -0.468447   0.697154   0.716917 0.00256432
 0.261965 0.0738472  0.236888            1 -1.08214e-05 -6.01938e-05
  0.239827 -0.0191252   0.261416  0.00011439 2.58688e-05           1
-0.146968 -0.263239 -0.168987 -6.82074e-05           -1 -7.20361e-05
-0.0904272  -0.262096   0.193446 3.30336e-06          -1 7.76568e-05
-0.0855488   0.142338   0.132869   0.576258 0.00341042  -0.817261
 -0.249038 -0.0740857    0.25293          -1 1.69316e-05 0.000119236
 0.109303  0.251686 -0.118187 -0.491355  0.703915  0.512908
 0.0512121 -0.0118202  -0.156517 0.00440035  0.0627698   0.998018
-0.00323329    0.144803   -0.498978  9.35539e-06 -7.85446e-18           -1
 -0.262578    0.18171 -0.0566632          -1 3.99629e-05 9.03242e-05
-0.262196 -0.145919 -0.145501           -1   2.0267e-05 -2.08879e-05
-0.262729 -0.219751   0.20126          -1 5.32554e-05  1.6208e-05
 0.203773  0.259605 -0.249434 5.21953e-05           1 1.38324e-05
 -0.262703 0.00644656  -0.201848           -1   8.6316e-06 -9.96096e-06
0.0896917  0.253677  0.258597 8.91482e-05    0.393952    0.919131
 0.264956 -0.220678  0.181574           1 5.26462e-05 9.11227e-05
-0.0866126   0.175558  -0.263418 -0.125887  0.207857 -0.970025
-0.257599  0.235014 -0.256791   -0.554754 0.000152523   -0.832014
-0.0691781 -0.0521427   0.149812 0.0450839  0.359181 -0.932178
  0.16336 0.0861889 -0.303746   0.871407   0.490558 0.00159418
 0.127786  0.130401 0.0957292 -0.632186 -0.304473 -0.712486
 0.135915  0.137263 0.0799816  -0.30203 -0.721342 -0.623252
-0.0184372   0.182416  -0.319866 -0.0780643   0.996947 0.00142456
0.0677249  0.174094  0.351521   0.318973   0.947752 0.00477525
-0.00455303   -0.095476    0.158328   0.0701371 0.000622136   -0.997537
-0.0247277  -0.182878   0.406423   -0.0850206    -0.996379 -0.000350354
  0.182769 -0.0216133   0.288922  0.988883 -0.148598 0.0054364
-0.035968 -0.077168 -0.152675   0.244664 0.00148069   0.969607
-0.0781629  -0.168729  -0.494006 -0.383191 -0.834693  -0.39554
-0.0732261  -0.170447   0.378341   -0.385088    -0.92288 4.26609e-05
  -0.207957 -0.00859443   -0.159418 0.00340495 0.00292468    0.99999
-0.00130775   -0.186912    0.294171 -0.0185393  -0.999824 -0.0027529
 -0.123315 -0.0925536   0.500539 -6.71902e-05  0.000209939            1
-0.123917 -0.184687 0.0979391  0.758928 0.0154435 -0.650991
   0.25786 0.00216987  -0.157853    0.552583 0.000399195    0.833457
-0.226173 -0.199686  0.262996 4.73787e-05 7.44694e-05           1
 0.177953 -0.043472  0.395388   0.978446  -0.206497 0.00149826
  0.172452  -0.142597 -0.0681024 -0.00144635    0.911725    0.410799
 0.116404 -0.263736 -0.236259  2.83667e-05           -1 -8.26531e-05
-0.180824 0.0241716 -0.363463   -0.993739    0.111725 0.000875662
0.0122415 -0.265491  0.224807 5.96081e-06          -1  7.5752e-05
 -0.12272 0.0861386  0.130092 0.00269876  -0.582218  -0.813028
-0.101552 -0.152365  0.120804   0.641557 0.00877311  -0.767025
-0.173581 -0.260137 -0.244259 -4.93348e-05           -1  1.02554e-05
0.0170695  0.262621  0.226931 2.62479e-05           1 1.01933e-05
 -0.10223  0.188393 -0.122419   0.628529 0.00285863   0.777781
 0.0672626 -0.0149978  -0.157539 0.00136896  0.0681342   0.997675
0.0604999 -0.173286   -0.2954    0.296553   -0.955016 0.000483685
 -0.167249  -0.258476 0.00929507  0.396711 -0.917821 0.0150224
-0.00250373  -0.0162271   -0.500134  6.01286e-05 -6.38266e-14           -1
0.0883887   0.26392 -0.216782  3.03802e-05            1 -4.91575e-05
