-0.241647  0.100596  0.263148 -1.87349e-05  5.64245e-05            1
-0.179145 0.0178271  0.157876 -0.00284613 -0.00129928   -0.999995
-0.248202 -0.262857 -0.172641  4.29854e-05           -1 -4.05133e-05
-0.179722 -0.263077  0.227684 -1.16387e-05           -1  2.75014e-05
 0.112165 0.0943445 -0.499635 -5.13487e-06  3.31039e-05           -1
-0.153427 -0.216679  0.263221 -1.22885e-05 -4.37843e-05            1
   0.16851  -0.157137 -0.0274249 0.00053501   0.974176   0.225789
-0.201926   0.26296  0.118249 -3.33734e-05            1 -7.13911e-06
  0.112677 -0.0435929   0.151505 0.00151119    0.25462   -0.96704
0.263072 0.164187 0.239708            1  7.28369e-05 -2.57888e-05
-0.263052  0.129626 -0.181339           -1  2.30907e-05 -3.45528e-05
  0.249414   0.141497 -0.0717745 0.00226461  -0.837884   0.545844
 0.156912  0.156732 0.0174402 0.00662374  -0.992334  -0.123404
 -0.122659 -0.0508266   -0.14983 -0.00127756    0.247829    0.968803
-0.155096  0.193678 0.0300609    0.979026 -0.00149873   -0.203728
-0.116586 -0.262649 -0.127973 -7.13634e-05           -1 -0.000110856
 -0.12069  -0.15796 -0.104111   0.634983 0.00193522   0.772524
  0.184265 0.00830569   0.263556 0.000245867 1.45528e-05           1
 0.140503  0.119153 -0.470881     0.747141     0.664665 -1.43676e-05
 0.118016 -0.141567  0.263978  0.000103006 -0.000163949            1
-0.243032 -0.132451 -0.086065 -0.00255342    0.813309    0.581826
-0.263058  0.258134 -0.160243          -1 6.60443e-05 -3.1091e-05
 0.171411 0.0687951 -0.467175   0.920327   0.391147 0.00126985
  0.215979 -0.0974606  -0.263345 0.000136141 -7.6374e-05          -1
-0.263088 -0.186065  0.132557           -1  6.80007e-06 -1.04211e-05
 0.110743 -0.263028  -0.25135  2.2965e-05          -1 -6.7235e-05
-0.221531 -0.262923 -0.253648 -6.54067e-06           -1 -3.24818e-05
-0.134786 0.0201341 -0.499946 -3.80633e-05  3.70135e-05           -1
0.0425255 -0.215645 -0.152213   -0.290326 -0.00058542    0.956928
-0.256443  0.151384 0.0507222 0.000139697   -0.899368   -0.437193
-0.0549938  0.0180826    0.15678 0.00389294  -0.121043   -0.99264
 -0.134454 -0.0953853  -0.125971 0.0014867  0.597046  0.802205
  0.22202 -0.262981    0.1975 2.99407e-05          -1  1.8722e-05
 -0.26314 -0.254312  0.238672          -1  2.1412e-05 1.53481e-06
 0.262735 -0.135216 -0.126667            1 -9.76267e-05 -6.55206e-05
-0.262962  0.189907 0.0808537          -1 7.15301e-05 1.06729e-05
-0.166587 0.0787036  0.404152   -0.903527    0.428531 0.000152842
  0.236991   0.262795 -0.0007975 0.000187004           1 1.18539e-05
-0.263118   -0.2051  0.219963          -1 4.90101e-05 1.08534e-05
0.199371 0.115887 0.263502 0.000130202 6.29169e-05           1
  0.257716 -0.0125894  -0.263222  0.000163929 -4.87975e-05           -1
 0.262655 0.0766312  0.144638           1 8.63898e-05 0.000129807
-0.172199    0.2587 -0.263026 2.41932e-05 1.40314e-05          -1
 0.180323 0.0380013  0.458135   0.971557   0.236752 0.00509256
0.208752 0.263045 0.131071 0.000100454           1  -2.723e-05
 0.155987 -0.228906 -0.263086 -4.55327e-05  -5.9065e-05           -1
 0.114915 -0.144083  0.462742    0.621887   -0.783106 -0.00118139
0.0917018 -0.159894  0.323319    0.463084   -0.886314 0.000575703
-0.236754  0.203384  0.263121  0.000105189 -3.81442e-06            1
-0.0958226  -0.263094   0.219588 -2.1659e-05          -1 6.30153e-05
0.165312 0.251267 0.263121 -8.23468e-05  8.35007e-05            1
-0.263059  0.197843 -0.241848           -1  0.000189089 -0.000246808
0.169637 0.100409 0.263713 0.000150867 0.000102769           1
-0.0105262   0.262691   0.163435 -0.000108551            1  0.000115616
-0.105227 -0.262682  -0.16219  7.50186e-05           -1 -0.000110546
 0.188854 0.0454514 -0.151672 0.000845048   -0.229902    0.973213
  -0.262933   -0.229057 -0.00227395           -1 -7.32457e-06 -7.07975e-06
-0.0309565   0.181635  -0.471038   -0.23692   0.971525 0.00276138
 0.197341 0.0521762   0.14904 -0.00117061   -0.365652   -0.930751
 0.146884  0.111143 -0.384613     0.778167     0.628057 -0.000193026
  -0.204949 -0.00346832     0.26336  -0.00010787 -5.76334e-05            1
 0.220963 -0.179449  0.262997  3.93887e-05 -5.22147e-05            1
 0.216025 -0.262923   0.21234 -1.58763e-05           -1  3.70842e-05
 0.224934 -0.021144  0.263188   0.00016308 -2.87146e-05            1
 0.262773  0.155112 -0.148987           1 5.17022e-05   -3.44e-05
 0.118968  0.251698 -0.104005  -0.698937 -0.0034116   0.715176
0.0116889 -0.184014   -0.3649    0.122221   -0.992503 0.000755941
0.0160957 -0.127792  0.157005    -0.15311 0.000809358   -0.988209
-0.263126  0.146174  0.243253           -1 -2.02549e-06  1.11641e-05
0.035191  0.20016 0.154147   -0.169069 -0.00166438   -0.985603
-0.0954261   0.119399   0.125469    0.58708 0.00103305  -0.809529
-0.262892 0.0227082  0.216507           -1 -6.27566e-06   4.6325e-06
-0.141809  0.262511 0.0693206  0.000169285            1 -3.69551e-05
-0.184673  0.263107 -0.187228 -1.65992e-05            1 -5.74767e-05
   0.16464 -0.0830227   0.437789    0.883202   -0.468993 0.000137815
 -0.195522  -0.138541 -0.0754807 0.000723424    0.888517    0.458843
0.0246927   -0.2624  0.171488  5.95021e-06           -1 -1.26687e-05
0.0079854 -0.184439    0.3131  -0.0255112   -0.999672 -0.00238997
-0.111094 -0.250626 -0.112104    0.644247 -0.00434082    0.764805
-0.0294545  -0.182991  -0.323035 -0.0536653  -0.998558 0.00139614
   0.16539 -0.0231319   0.499564  0.000137647 -3.69902e-05            1
-0.129517  0.131187   -0.3561    -0.737122     0.675759 -0.000239913
   0.18459 0.00244782  -0.338316            1 -0.000485043 -0.000476385
-0.263102 -0.121678 -0.220479           -1 -2.06553e-05 -2.24869e-05
  0.26302   0.19412 -0.215431           1  1.4899e-06 2.08912e-06
 0.108935 -0.148636  0.492584    0.552362   -0.833603 -0.00127127
-0.161993  0.125775 0.0956385 -0.000582713    -0.758449    -0.651732
    0.119 -0.140981 -0.367046    0.638162   -0.769902 2.37897e-05
-0.0539936   0.176107   0.423922   -0.247263    0.968948 0.000634725
  0.114657 -0.0285831  -0.155253 -0.000130609     0.233313     0.972402
-0.113697  -0.18208 -0.263554 -0.000146147 -0.000348061           -1
 0.116079 0.0954585   0.12647 0.00049724  -0.615606  -0.788054
-0.250508 -0.262925  0.054208 -9.05689e-05           -1  3.33857e-06
 0.262936 0.0146334 -0.212054           1 1.26961e-05 9.47627e-05
-0.0951278  -0.157856  -0.464029  -0.540762  -0.841175 0.00115046
  -0.13504 -0.0340123   0.154393 -0.000164102     0.221849    -0.975081
 0.207068 0.0928235  0.127906 -0.000328424    -0.594014    -0.804455
-0.211042 0.0343525  0.153857 -1.20468e-05    -0.201802    -0.979426
-0.262579 -0.112046  0.141692           -1 -5.89727e-06 -8.03703e-05
0.149109 0.262817 0.168038 7.24275e-06           1 6.62497e-05
  0.10131  0.076338 -0.137844 0.00228272  -0.467895   0.883781
 0.162066 0.0997985 -0.122608 0.00196634  -0.594004    0.80446
 0.134606 -0.263019  -0.25287   3.2959e-05           -1 -6.40204e-05
-0.153923 -0.263006  -0.17546 -4.99992e-05           -1 -6.69306e-05
-0.0769924   0.151761   0.499233 -0.000135174  0.000110875            1
-0.263006  0.161183  0.128795          -1 4.86372e-05 5.01733e-05
 0.087934 -0.161811  0.300212   0.456717  -0.889609 0.00220887
-0.101653 -0.153693 -0.278936   -0.515436   -0.856918 -0.00408512
  0.199247  -0.262898 -0.0624442 0.000101946          -1 3.33773e-06
 0.188402 -0.153459 0.0380039 -0.0086659    0.96822   -0.24995
-0.226367 -0.262877  -0.24191 -0.000114928           -1 -0.000213966
-0.25741 0.262524 0.262537 0.000115947           1 1.51712e-06
  0.263074 -0.0802087   0.234172            1  -5.0402e-06 -9.52219e-05
0.0607457 -0.173911 -0.370124    0.304431   -0.952534 0.000391309
-0.263048 -0.207737 -0.107775           -1 -2.19022e-05 -1.80277e-05
-0.146865  -0.26312  0.231106 -3.14913e-05           -1  4.67396e-05
0.0782245  0.166785 -0.422794    0.397148    0.917755 0.000277861
0.161681  0.15501 0.263615 6.65779e-05 7.40734e-05           1
-0.173167 0.0628603  -0.34639   -0.933467    0.358663 0.000563507
-0.179672 0.0410638  0.414401   -0.979038    0.203676 -0.00104749
 -0.178398 -0.0460426  -0.391981    -0.95854   -0.284958 0.000143503
-0.103505  0.263011  0.161724  6.45358e-05            1 -8.84609e-05
 0.116737 0.0343549 -0.499917 -9.98628e-07  3.73612e-05           -1
-0.0445975   0.263014   0.262923 2.24091e-05           1 6.10881e-06
-0.158126 -0.263091  0.190485 -4.35579e-05           -1  7.96624e-05
-0.187416 -0.219162  0.263149 -5.17588e-05  2.29774e-05            1
-0.263111   0.18046 -0.126471           -1  2.00576e-05 -3.22208e-05
   0.17004 -0.0704908  -0.488232    0.917219   -0.398381 -0.00139185
-0.131769  -0.26294   0.16166 -2.81037e-05           -1  5.61283e-05
  0.178075 -0.0484072   0.358838   0.974053  -0.226312 0.00184939
0.00343226   0.184826    0.42746  -0.0440818    0.999026 -0.00192015
  0.10724 0.0316774 -0.499954 -1.49132e-07  5.55799e-05           -1
-0.0353471  -0.262562   0.192672 -4.78748e-05           -1  0.000112891
-0.0365432  -0.180792  -0.368361  -0.238095  -0.971241 0.00137645
-0.135617  0.124848  -0.37363   -0.737999    0.674802 1.15844e-06
 0.130376 0.0784874 -0.499667 -6.70408e-05  0.000118281           -1
-0.202153 -0.046368   -0.2634 -0.000142549  5.00002e-05           -1
 0.0505643 -0.0354017  -0.154133 -0.00115737    0.160931    0.986965
-0.101192 -0.153888  0.347105    -0.571338    -0.820715 -5.54743e-05
 -0.175979 -0.0541035   0.349342   -0.948471   -0.316865 6.70228e-05
-0.0222979 -0.0185365   0.157242 0.0289332 0.0112161 -0.999518
 -0.263115   0.256503 0.00564862           -1 -5.73434e-06  3.81187e-05
-0.187205 -0.128002 -0.263424 -0.000134539 -4.84258e-05           -1
0.00301224   0.184565  -0.478585  -0.0211742    0.999757 -0.00619547
0.0662578 -0.100353  0.499821   4.4687e-05 -0.000101672            1
-0.0530206  -0.262741  -0.210705  2.41554e-05           -1 -6.41059e-05
-0.114682   0.20355 -0.108671    0.717227 -0.00194483    0.696837
  0.262437    0.18547 -0.0984992            1  2.48384e-05 -8.28786e-05
  0.180525 -0.0381556   -0.42393    0.974448   -0.224612 7.55418e-05
-0.132491  0.261471 0.0868284  0.766936 0.0096405 -0.641651
 0.262788 -0.207082 -0.219503            1 -3.17066e-05  2.63003e-06
-0.0101247   0.184402   0.437065   -0.0652273      0.99787 -0.000947776
 0.208934 0.0847957   0.26359 0.000159533 4.92711e-05           1
 -0.175583   0.149363 -0.0515506 0.00210641  -0.944727   0.327853
-0.0351073  -0.244337  -0.153881   0.271069 0.00542895   0.962545
 -0.195808    0.15541 -0.0301918 -0.0107297  -0.992154   0.124564
-0.0487076  -0.177771  -0.263775 -9.01168e-05 -0.000188347           -1
-0.0415158  -0.262756  -0.212443  4.45501e-05           -1 -6.64001e-05
-0.129217 -0.153445 -0.263529 -6.47128e-05 -0.000253083           -1
 0.118084 -0.262421 -0.118106  2.63712e-05           -1 -5.38593e-05
  0.126025 -0.0341678  -0.154095 -2.70826e-05     0.196773     0.980449
  0.262621   0.203285 -0.0585528           1 2.51514e-05 8.56854e-06
 -0.157082 -0.0575955  -0.499867 -2.30158e-05  -3.8633e-05           -1
-0.00399512      0.2613   -0.158257    0.0779388 -8.96717e-05     0.996958
 0.217741 -0.019163 -0.156947 -0.00277752    0.113302    0.993557
0.167942 0.263126 0.242966 3.09678e-05           1 8.12271e-05
-0.171514 -0.075923 -0.138509 0.000513898    0.471848     0.88168
-0.0682805   0.171082  -0.499258 -4.21129e-05  2.86077e-05           -1
 0.125421 -0.135089   0.34633     0.650736    -0.759304 -0.000214477
-0.263094  0.126418  0.194983          -1 2.05576e-05 1.11356e-05
 -0.177606 -0.0495971  -0.496121 -0.960192 -0.279305 0.0043864
-0.228696 -0.262855  -0.24541  2.71593e-05           -1 -2.04178e-05
-0.262736 -0.144146  -0.13524           -1 -2.85384e-05 -4.37986e-05
 -0.263127   0.245176 -0.0239526          -1 7.86354e-07  3.0343e-05
  0.184044 -0.0126821  -0.289488    0.999876  -0.0149953 -0.00471739
 0.146207 -0.111717 -0.404499     0.78521   -0.619229 0.000135265
0.0216091 -0.229122  0.156664  -0.0831495 0.000252604   -0.996537
0.0710503 -0.212037  0.141066  -0.499698 0.00134332  -0.866198
 -0.174666 -0.0582222   0.424437    -0.95962   -0.281299 0.000285889
 0.158763 0.0937452 -0.393768    0.879762    0.475415 4.83916e-05
-0.0495049  -0.238018  -0.149888   0.265311 0.00603758   0.964144
0.0448941  -0.23974  0.263242    8.753e-05 -7.46573e-05            1
0.0720207 -0.169605 -0.339986     0.402757    -0.915307 -0.000147791
-0.0754656  -0.189251  -0.263715 -8.27253e-05   -0.0001936           -1
 0.198213 0.0542397  0.148337 -0.000850505    -0.353599    -0.935397
-0.166996  0.263112   0.17868 -4.30896e-05            1  5.84875e-05
0.0055684  0.184112  0.310011   0.0137796    0.999903 -0.00218586
 0.0991183 -0.0709843  -0.499913  7.54826e-05 -6.18395e-05           -1
0.263047  0.19609 0.123089 1 0 0
0.0661151 -0.171859  0.436134     0.347991    -0.937498 -5.96987e-05
-0.100238 0.0993379  0.121714    0.606022 0.000130656   -0.795448
 0.169325 0.0723628   0.27198    0.92366   0.383196 0.00354133
-0.175615 0.0567379 -0.479863    -0.922288     0.386503 -0.000415146
  0.263037 -0.0967663   0.170328            1 -1.40373e-05  5.03419e-05
-0.134071  0.263132 -0.221906  -3.2681e-05            1 -2.78564e-05
-0.0257116   -0.10735    0.15613   0.0960043 0.000422148   -0.995381
-0.0254965  0.0586232   0.499998  6.83165e-06 -1.65423e-05            1
0.0145173   -0.1798 -0.157609   -0.151736 0.000239342    0.988421
-0.113947 -0.144561   0.42961    -0.633357     -0.77386 -0.000475921
 0.262805 -0.213518 -0.213824            1 -2.96791e-05 -1.12929e-05
 -0.131801 -0.0361283   0.499552 -3.57663e-05  5.27892e-05            1
 -0.14218 -0.116946 -0.345424    -0.779719     -0.62613 -0.000487716
-0.0694092  0.0419829  -0.499992 -7.00073e-05  -2.0199e-06           -1
  0.0599235 -0.00532849    0.499998 -4.34832e-07  6.40556e-05            1
  0.11753  0.199913 -0.105614   -0.69773 0.00315461   0.716354
-0.0149812 -0.0588197  -0.157143 0.0707743  0.002302   0.99749
-0.109224 0.0191407 -0.499976 -8.07279e-05  4.05613e-06           -1
0.00744327   0.143396   0.499608 4.10175e-05 3.34179e-05           1
-0.219922  0.256305 -0.262946  6.63536e-05 -4.19754e-05           -1
 -0.045154 -0.0585667   0.151967   0.237182 0.00560864  -0.971449
 0.0464473 -0.0165796  -0.157052 -0.00760343    0.128192     0.99172
-0.262884 -0.151867 -0.171107           -1 -1.96059e-05 -1.68236e-05
0.103791 0.152428 0.469942     0.511033     0.859561 -9.84847e-05
-0.188632 0.0361039  0.153726 0.00164296  -0.240285  -0.970701
-0.0749199  0.0477497   -0.49998 -7.15844e-05 -7.61453e-07           -1
   0.16163  -0.262712 -0.0287048 3.6974e-05         -1 4.1172e-05
-0.168437  0.262641 0.0771752  0.000153225            1 -1.14513e-05
0.0452797 -0.100736 -0.151596   -0.279818 -0.00184725    0.960051
0.0112887  0.184449  0.404539    0.0923868     0.995723 -0.000728638
0.0245727  0.195027 -0.155913    -0.126283 -0.000361084     0.991994
 0.125379 -0.206311 -0.263264  4.47656e-05 -0.000113277           -1
-0.214553  -0.26283  0.168555 -7.6503e-06          -1 5.68593e-05
0.0562604  0.175789 -0.339263     0.307823     0.951443 -0.000644413
-0.0341974 -0.0410936   0.499999 4.60835e-06 6.13007e-06           1
-0.131572 -0.129118  0.466996   -0.714779   -0.699349 0.000887012
-0.00495857    0.184516    0.404045  -0.0597724    0.998212 0.000408486
0.0892643  0.262891 -0.143813 -1.2315e-05           1 2.18563e-05
0.263033 0.110374 0.227432            1 -5.74339e-07 -7.79333e-05
-0.0503105  -0.091521   0.499909   2.7076e-05 -6.01205e-05            1
 -0.11402 -0.198025  0.109405    0.739215 -0.00094425   -0.673469
 0.262714  -0.21339 0.0442033            1  7.99138e-05 -5.43756e-06
0.0103084 -0.143769  0.157612  -0.0326532 0.000966642   -0.999466
0.0259855  0.227558  0.263335 3.06689e-05 0.000105568           1
 0.201491  0.263061 -0.133362 9.91451e-05           1 -3.6603e-05
  0.262704  -0.170456 -0.0502443            1 -4.16246e-05  5.88791e-06
-0.169114 0.0739734   0.30609    -0.909143     0.416485 -0.000301393
-0.179947 0.0408371  -0.45373    -0.971233     0.238131 -0.000144652
 -0.21624 -0.262919  0.128606 -5.51966e-05           -1  2.08226e-05
  0.180934 -0.0342543  -0.350701    0.979078   -0.203483 -0.00112916
0.0772952  -0.16743  0.485118     0.49094   -0.871192 -0.00132906
-0.126507  0.134092  0.459274  -0.672574   0.740027 0.00201125
-0.195185 0.0487405  0.263416 -0.000168613 -3.40268e-06            1
-0.157454 -0.160573 0.0232516    0.984545 -0.00424095   -0.175082
-0.173466 -0.263106 -0.225486 -3.91047e-05           -1  1.98232e-05
 0.126439 -0.134023   0.46391     0.714387    -0.699751 -0.000831915
0.262883  0.22383 0.025644            1 -8.52335e-05  1.44837e-05
 -0.262911  -0.185218 -0.0844015           -1 -6.25054e-05 -3.17462e-05
  0.244304 -0.0132274   0.263156  0.000116386 -2.07153e-05            1
-0.262914  0.199744  0.202688          -1 5.29582e-05 1.22086e-05
 0.160806 0.0275652 -0.499818  0.000106659 -1.30643e-06           -1
 0.103906 -0.262431 -0.118803   2.0164e-05           -1 -5.52874e-05
 -0.262989  -0.208334 -0.0536623           -1 -3.23518e-05 -1.43899e-05
  0.255786 -0.0332547    0.15421 0.00240884    0.19837  -0.980124
 0.263128 -0.205893    0.1561           1 4.25007e-05   8.975e-06
 -0.17117 0.0689785 -0.282012    -0.897714     0.440578 -0.000127371
   0.18408 0.00456998  -0.486434   0.999995 0.00301603 0.00122553
 0.0233159 0.00719435   0.157583 -0.0185257 -0.0182116  -0.999663
  0.14386 -0.239238 0.0649037    -0.944541 -7.22574e-05    -0.328392
 0.199824 -0.256673 -0.263012 -0.000134432  2.37547e-05           -1
 0.166114 0.0805985  -0.31309    0.900236    0.435401 0.000755226
 -0.176578 -0.0527975   0.324979  -0.951006  -0.309173 -0.0001167
-0.0686823   0.262963   0.199985  5.21219e-05            1 -8.19337e-06
-0.0966007 -0.0974625  -0.499779 -0.000146813 -0.000106857           -1
  -0.26224 -0.0288876  -0.158802           -1 -3.08163e-05 -6.89767e-05
0.263123  0.25494 0.101067            1 -0.000102134  1.50916e-05
  0.26278 -0.222522 -0.215724            1  -2.3428e-05 -2.01491e-05
-0.207434 0.0115019  0.263353 -2.59724e-05 -0.000103513            1
-0.212801 -0.262865  0.190676 1.47937e-05          -1 6.29613e-05
-0.242833 -0.256253 -0.262817 4.33871e-05 1.27346e-05          -1
0.00266143  -0.184158   0.450086   0.0904286   -0.995898 -0.00319319
 -0.164181 -0.0734667  -0.499863 -2.15189e-05 -9.54167e-05           -1
-0.0166559  -0.204135  -0.157147    0.0750287 -0.000848779     0.997181
-0.049104 -0.147724 -0.499538 -7.59145e-05 -4.38437e-05           -1
0.0772811 -0.152827  0.138144   -0.416082 -0.00318535   -0.909322
  0.148702   0.236354 -0.0537456   -0.940267 -0.00272685    0.340428
-0.26293 0.119384 0.132649           -1 -5.82281e-07  5.44923e-05
 0.10032 0.263097 0.234098  1.7032e-05           1 4.69607e-05
0.0367404 -0.243685 -0.153804   -0.146163 0.000957306     0.98926
-0.262681 0.0266248 -0.230358           -1 -3.96267e-06 -8.61479e-06
0.0171556 -0.253227  0.263222  5.21514e-05 -9.12259e-05            1
-0.138848  0.153215 0.0760473    0.821422 -0.00242488   -0.570315
-0.000573457     0.262937    -0.190041  2.96413e-05            1 -7.09261e-05
-0.0505932  -0.211976  -0.263602 -7.76105e-05 -0.000135972           -1
-0.177751 0.0491847 -0.413326   -0.971172    0.238378 -0.00101851
-0.136326  0.144752 -0.263502 -0.000165158  0.000177775           -1
 0.263087  0.238844 0.0465326            1 -9.83668e-05  3.35489e-05
 0.188702  0.156505 0.0219304 0.00994446  -0.993406  -0.114214
-0.175532 0.0554524  0.489331   -0.960903    0.276875 -0.00230781
  0.156279  -0.172324 -0.0213798    -0.98879 -0.00332618    0.149275
-0.219482 -0.141317 -0.263129 -8.19386e-05 -2.95509e-05           -1
-0.0897062  -0.231803  -0.130213    0.551609 -0.00375465    0.834094
  0.252419 -0.0484804  -0.150416 -0.00127897    0.364839     0.93107
0.142974 0.116566 0.488294     0.779761     0.626077 -4.98002e-05
 -0.26299 -0.241347  0.012528           -1 -7.45958e-06 -7.59099e-06
-0.147089 -0.111038   0.42808    -0.795683    -0.605713 -0.000153809
0.0218882  0.183111 -0.468469   0.156132   0.987735 -0.0015905
-0.0273527   0.210033    0.15573    0.114153 -0.00215492   -0.993461
 0.113246  0.145393 -0.313217    0.609651     0.79267 -0.00013723
-0.262973  0.111233 -0.182479           -1  2.39393e-05 -4.24294e-05
 -0.239008  -0.262999 -0.0364423 -0.000112349           -1 -1.13403e-05
-0.225334  0.262994  0.199464 9.77949e-05           1 2.63275e-05
-0.00980067   -0.184149   -0.317904 -0.0392253  -0.999229 0.00145736
 -0.154974    0.24298 -0.0300014     0.98702 0.000438393    0.160596
  0.263089 -0.0424941   0.236068            1  8.06813e-05 -2.83252e-05
 0.262735  0.189523 0.0669443           1 2.75777e-05 -9.0004e-08
-0.203389  0.263094  0.163096 4.02843e-06           1 3.64252e-05
-0.263136 -0.204512  0.157587          -1  1.5761e-06 3.00071e-05
  0.263069 -0.0823056   0.252273            1 -1.78262e-06 -0.000101638
-0.148116 0.0484105 -0.150414 -0.00208725   -0.240969    0.970531
-0.258066  0.129674 -0.263148 4.81562e-06 6.13817e-05          -1
-0.111075  -0.23602  0.263199 -1.53306e-05  -7.6678e-05            1
 -0.148704  -0.153083 -0.0523528    0.927628 0.000803969    0.373504
-0.0472222   0.120279    0.15062    0.294982 0.000478281   -0.955503
  0.263071 -0.0667991   0.231083            1 -4.90179e-07 -0.000100868
 -0.152329   0.262266 -0.0472694 0.000171596           1  -6.476e-05
-0.0570224   0.262965    0.21081  6.52877e-05            1 -4.58728e-07
-0.161345  0.262624 -0.136076  4.9554e-05           1 2.81655e-05
  -0.184293 -0.00860751   -0.385811    -0.998204   -0.0599131 -0.000277268
-0.263068  0.212028  0.122439          -1 1.36834e-05 1.95733e-05
-0.033503 0.0782961  -0.15448   0.203198 0.00137153   0.979137
-0.141163 -0.262509 0.0934292 -6.17387e-07           -1 -4.87833e-05
 0.263059 -0.157491  -0.21324            1 -3.27199e-05   4.6504e-06
 0.263078  0.193048 -0.164238           1 1.01276e-05 2.44281e-05
0.0605548   0.17395 -0.263607 0.000102871 0.000123895          -1
 0.154062 -0.100493 -0.278154    0.858579   -0.512679 -0.00141203
-0.213798  0.262957  0.098221 -2.73543e-05            1 -1.44146e-05
-0.126829 -0.262716 -0.141455 -7.97779e-05           -1 -0.000100052
 -0.164307 -0.0563856  -0.499868 -1.47025e-05  -3.6878e-05           -1
 -0.08136 -0.165628  0.462665   -0.484946   -0.874544 0.000304627
 0.262696 -0.224082 -0.235692            1 -7.83823e-06  2.87132e-05
0.0609643 -0.173811  0.442272     0.340023    -0.940417 -0.000252451
0.120743 0.263063 -0.25802  1.91252e-05            1 -3.41816e-05
 0.245134  0.157589 0.0138404 -0.00936489   -0.999912 -0.00935617
-0.263145  -0.14852  0.263143           -1 -2.66189e-05  3.09163e-05
0.0352841 0.0431041 -0.499996 6.62303e-06 1.40027e-05          -1
 0.263038  0.252278 -0.104315            1 -0.000122671 -5.62331e-05
-0.124314  0.136093  0.468551  -0.654734   0.755855 0.00244014
-0.235765 -0.240678 -0.262826 4.52174e-05 1.52374e-05          -1
-0.0644912   -0.26309   0.231747 -9.88778e-06           -1  5.09465e-05
-0.183902 -0.263036  0.168498 -2.92968e-05           -1  6.58565e-05
-0.165471 0.0807716 -0.319423   -0.899116    0.437709 0.000988866
-0.030158  0.198411  0.263396 -1.27364e-05  0.000181285            1
 0.140233 -0.119146  0.489668    0.774177   -0.632969 -0.00018733
0.115206 0.262486 0.167206 -5.02298e-06            1  7.38954e-05
-0.226221  0.262989 -0.211565  7.12106e-05            1 -3.38519e-06
 -0.236308 -0.0749113  -0.263246 -8.65096e-05 -4.72457e-05           -1
-0.0490642  -0.188761  -0.263774 -8.88534e-05 -0.000174582           -1
 0.153401 -0.102048 -0.478056    0.848643   -0.528967 9.89523e-05
 0.207838 0.0681731  0.263607 0.000167605 5.49456e-05           1
0.191748 0.149854 0.263406 0.000108561 4.45784e-05           1
-0.217475 -0.148872 0.0536389 -0.00110545    0.936309   -0.351176
   0.11333 -0.0469148  -0.499926  8.85222e-05 -1.28213e-05           -1
-0.0901722  0.0501224  -0.499959 -8.16659e-05  4.06077e-06           -1
 0.183921  -0.01606 -0.439597   0.999963 0.00774641 0.00369727
 0.124972  0.111038 -0.499571 2.66492e-05  5.5066e-05          -1
-0.0900591  -0.164263   0.263533 -4.30516e-05 -0.000176289            1
0.0869734  0.171711 -0.131321  -0.559783 0.00181842   0.828637
-0.0320676 -0.0598223  -0.499998  3.10814e-06 -1.94468e-05           -1
-0.143448 -0.162132 0.0655711    0.908469 -0.00449021   -0.417928
0.143101  0.15359 0.263858 8.99971e-05 8.02066e-05           1
-0.263009  0.236827  0.061776           -1 -1.57644e-06 -8.18568e-06
0.0862945  0.160325 -0.131885     -0.55065 -6.95286e-05     0.834736
  0.259382   -0.26295 -0.0402116  0.00019095          -1 1.15469e-05
  0.263039 -0.0309695  -0.220151            1 -6.27162e-07  8.39562e-05
-0.263058  0.255784 -0.148827           -1  3.53388e-05 -1.69036e-05
 0.14496 0.118047 0.105369 -0.0090288  -0.720146  -0.693764
 0.134664 -0.245693 0.0834705  -0.892131 0.00501347   -0.45175
0.0618619 -0.173532  0.298954     0.294017      -0.9558 -0.000456759
0.0764927  0.124484  -0.13858   -0.55856 0.00170228   0.829462
 0.262193  0.144965 -0.079586            1  0.000105287 -6.76974e-05
 0.176594 0.0520726  0.461431   0.964326   0.264662 0.00544104
 0.190012 0.0387657  0.263688 0.000200533 6.83512e-05           1
0.0255032 -0.182576 -0.273998    0.189526   -0.981876 5.57483e-05
-0.206531 -0.262977 -0.226672 7.70941e-07          -1  2.6901e-05
 0.183837   0.26311 -0.187038  5.32334e-05            1 -4.84824e-05
 -0.15729  0.180637 -0.012637   0.998356 0.00135196  0.0573034
-0.263071  0.218271  0.144739          -1 7.59638e-06 1.11946e-05
-0.250965 0.0455994  0.151506 -0.00798952   -0.213542   -0.976901
0.0914318  0.160337  0.264063   8.628e-05 0.000200893           1
0.00502395    0.23675  -0.263157 -1.07468e-05  0.000112389           -1
-0.113436 -0.148294  0.263622 -8.73363e-05 -0.000171308            1
 -0.221097 -0.0815895   0.263165  -4.4389e-05 -2.77164e-05            1
0.0674991  0.171671  0.264029 7.65988e-05 0.000125705           1
 0.180087 0.0390479  0.366477    0.97947    0.20158 0.00183326
 0.123058 0.0863079  0.499194 -1.12076e-05  9.79724e-05            1
  0.129082   0.220675 -0.0917895   -0.809284 -9.2174e-05    0.587417
-0.00110141   -0.262698   -0.200049 8.49237e-05          -1 -8.1919e-05
-0.262641 0.0572176 -0.173184           -1  3.25737e-06 -2.92834e-05
-0.263115 -0.190665   0.14522         -1 2.0477e-06 5.8941e-06
-0.141327  0.164087 0.0712871   0.884427 0.00206875  -0.466673
-0.199201  0.262844  0.078073  3.23719e-05            1 -1.22667e-05
 0.143234 -0.228583  0.263187 -5.05209e-05  3.58158e-05            1
 0.193925 -0.262921 0.0272537 8.11353e-06          -1 1.58594e-05
-0.232837 0.0296927 -0.154951 -0.00600384   -0.210781    0.977515
-0.183036 0.0223629 -0.284168   -0.991679    0.128709 -0.00241903
 0.208739 -0.262867   0.23488 -1.52524e-05           -1  2.97135e-05
 0.125785 -0.263017 -0.256723   2.7999e-05           -1 -6.62803e-05
 -0.263062  -0.226998 -0.0692528           -1 -1.78782e-05 -1.95429e-05
 0.172073 0.0327481   0.49968  5.48376e-05 -7.07499e-06            1
0.0373713 0.0755747 -0.153808   -0.162196 -0.00143674    0.986758
-0.147621 -0.209496 0.0567209   0.930573 0.00250284  -0.366098
-0.174051 -0.263064  0.187023 -3.20179e-05           -1  7.88543e-05
  0.26287 -0.024946 -0.182541           1  2.6867e-05 1.67296e-05
 0.114166 -0.259221  0.109742  -0.772384 0.00444349   -0.63514
0.0923224  0.169297 -0.263579 9.25289e-05 0.000102094          -1
-0.110733 -0.178396 -0.112725     0.634171 -0.000110807     0.773193
-0.0481545  -0.262535  -0.150027 -6.24923e-05           -1  9.68759e-05
-0.177219 0.0287354 -0.499951 1.14941e-06 5.72276e-05          -1
-0.262995  0.253545 0.0863023           -1    5.116e-06 -4.07287e-06
-0.263141  -0.23368  0.185703           -1 -9.23303e-05  6.54198e-05
0.0539536 -0.130535  0.148735  -0.339145 0.00150551  -0.940733
 0.238992  0.140232 0.0726346 -0.00261099   -0.902363    -0.43097
  -0.23107 -0.0184745  -0.157519 -0.00425479   0.0388801    0.999235
0.0739234  0.222644 -0.263379 7.78886e-05 9.84195e-05          -1
 -0.177436 -0.0499034   0.301638  -0.957128  -0.289664 0.00103057
0.0660339 -0.240117 -0.263331  9.28007e-05 -0.000117665           -1
 0.139853 -0.208531 0.0732547   -0.899939 -0.00158659   -0.436012
 -0.124457  -0.262644 -0.0979894 -8.9211e-05          -1  -3.295e-05
-0.208605 -0.262907 -0.113468 -6.93183e-05           -1 -1.67967e-05
 0.228676 -0.263014  0.166949  0.000158929           -1 -2.33228e-05
-0.251131  0.263003  0.189339 0.000103263           1 3.24301e-05
 0.109833 -0.235328  0.263272 -4.80498e-05  1.95506e-05            1
-0.0682435  -0.194467   0.142132     0.427477 -0.000935847    -0.904026
 0.141573 -0.217464   0.26326 -5.12632e-05  2.50908e-05            1
 0.157657 -0.106805  0.116044 0.00218481   0.631112  -0.775689
 0.208743 -0.263129   -0.2464  2.58654e-05           -1 -4.40296e-06
-0.195527  0.252096  0.263059  4.70066e-05 -4.51211e-05            1
 -0.209101  -0.262903 -0.0300074 -6.96031e-05           -1 -1.01819e-05
0.0670534  0.262764   0.19575 -4.53418e-05            1  3.91329e-05
0.203911 0.263091 0.205891  1.0581e-05           1 6.27217e-05
  -0.184439 -0.00134333   -0.290657    -0.99981  -0.0194996 0.000569595
 0.194364  0.126285 0.0949579 0.000518486   -0.830417   -0.557142
   0.157551    0.198778 -0.00962062   -0.999783 -0.00233548   0.0206815
 -0.17409  0.154436 0.0342695 -0.00372151   -0.988837   -0.148954
 0.263117  0.232232 0.0821166            1 -0.000103064  1.20542e-06
 0.262435  0.135596 -0.130588            1  0.000106115 -9.61701e-05
  0.180462 -0.0361617   0.292399   0.982891  -0.184159 0.00317757
0.0679475  0.170954   0.47031    0.372085    0.928198 0.000815236
-0.211662  0.262938 0.0941043 -1.24881e-05            1 -1.53229e-05
0.0128677  0.150306 -0.157677  -0.151129 0.00247555   0.988511
-0.0470866  -0.262545  -0.173546 -8.95104e-05           -1  0.000212346
 0.037665 -0.180307  0.440844   0.166297  -0.986075 0.00093364
 -0.262943 -0.0785075   0.216153           -1 -9.28343e-06  3.91629e-05
-0.054336  0.176146  0.372059   -0.306651    0.951822 5.64177e-06
0.0384069 -0.262722 -0.186584  -6.4802e-05           -1 -1.09037e-05
 0.0228439 -0.0772213   0.499984 -5.02191e-06  -9.9813e-06            1
 0.168977 0.0733735  0.359985  0.909682  0.415305 0.0010089
-0.233526  0.263084  -0.09734 -0.000131887            1  5.09381e-07
0.116975 0.212073 0.106167   -0.691667 -0.00303374    -0.72221
-0.20086  0.26309 0.172651  1.1417e-05           1 5.71817e-05
  -0.22267  -0.157748 -0.0035243 -0.00120368    0.999984  0.00559352
0.119171 0.027046 0.499799 4.64974e-05 3.85406e-05           1
  0.223531  -0.262974 -0.0824005 0.000144176          -1 3.24199e-06
 0.121141   0.13909 -0.398184     0.680418     0.732824 -0.000364054
0.115173  0.14416 0.264127 0.000117039 0.000128357           1
-0.0787543  -0.247059   0.263174 -4.45451e-05 -5.89224e-05            1
   0.26307 -0.0574919   0.224831            1  1.35531e-05 -9.44545e-05
 -0.20383 0.0459564 -0.263448 -2.01904e-05  -5.9002e-05           -1
0.00457633   0.132625   0.158203  0.0667147 -0.0011203  -0.997771
 -0.185055  -0.148466 -0.0551886 0.00406154   0.908104   0.418726
  0.154942   0.236345 -0.0306198   -0.976265 -0.00404116    0.216544
-0.262713 -0.153855 -0.109273           -1  3.52341e-05 -3.52041e-05
 0.262346 0.0708587 -0.141226            1  6.77051e-05 -0.000195534
-0.0491176   0.177748  -0.401301    -0.276535     0.961004 -0.000543494
 0.161209 0.0890743 -0.464368   0.856385   0.516336 0.00108286
-0.00718149   -0.184032    0.470951 -0.0737403  -0.997238 0.00885859
-0.176775 -0.051525  0.437196    -0.958744    -0.284272 -4.42719e-05
 0.151431   0.10472 -0.340711     0.814842     0.579682 -0.000829427
0.0377392  -0.17168 -0.499589  2.93273e-05 -0.000165651           -1
0.212874 0.262988  0.25509 -5.28595e-05            1  5.30333e-05
 0.137599 -0.196111 0.0770166   -0.898991 -0.00197025   -0.437962
  0.263049 -0.0248173    0.17955            1   3.6864e-05 -8.45629e-06
-0.121638 -0.138008  0.427053    -0.661744     -0.74973 -0.000476901
 0.207461  0.262918 0.0721038 9.05949e-05           1 2.82676e-06
0.014215 0.220614 0.157467  -0.144884 0.00260734  -0.989445
 0.262438   0.16421 0.0123555           1 5.36021e-05 2.05897e-05
-0.0415764  0.0479529   0.153261    0.18665 -0.0597799  -0.980606
 0.199287  0.263077 -0.211836 4.83517e-05           1 1.19314e-05
 -0.145494   0.213788 -0.0619828    0.926368 -0.00119557    0.376617
0.245413 0.209574 0.263092  6.34826e-05 -1.56401e-05            1
0.0220589 -0.182896 -0.459529    0.0973838    -0.995246 -0.000977817
 0.262953 0.0996302 -0.202934           1 1.71961e-05 5.65272e-05
0.00634662   0.147183   0.499573 2.82606e-05 6.70395e-05           1
 0.193008  0.263056 -0.128127  8.12065e-05            1 -2.37226e-05
  0.26251 -0.173002 0.0127161            1  6.43082e-05 -2.05798e-05
0.0132522  0.158411 -0.499518 2.58997e-07 0.000141115          -1
 0.263075  0.143269 -0.200662           1 4.35199e-06 3.25512e-05
0.0769034  0.121132  0.138041  -0.43519 0.0042982 -0.900329
-0.262699 0.0325599 -0.231354           -1 -4.12295e-06 -8.14295e-06
0.00722385  -0.184127  -0.467114   0.0290559   -0.999565 -0.00504672
-0.0137039 0.00153231   0.157624  0.0176491 0.00147001  -0.999843
-0.0567624 -0.0795823   0.499933  1.62158e-05 -4.87324e-05            1
0.0382938  0.180278  0.450845    0.272518    0.962149 -0.00178905
0.134154 0.126313 -0.46722    0.714699    0.699432 0.000251725
  0.165918 -0.0927828  -0.127956 0.00275183   0.589727   0.807598
0.111703 0.199008 0.111321   -0.686027 -0.00388949   -0.727566
-0.213317   0.20095 -0.263064 -1.59458e-05  2.38298e-05           -1
-0.0116204  -0.184064   0.276054 -0.0464742  -0.998915 0.00292981
 0.241465 -0.262953 0.0807315 0.000181019          -1 1.75123e-05
-0.161005 0.0893189 -0.459099     -0.87323     0.487308 -0.000165415
  0.177464 -0.0505176  -0.426577     0.969945    -0.243325 -0.000764221
  0.242906 -0.0452872   0.263127  0.000134931 -4.04033e-05            1
-0.221941  0.156751 0.0196213   0.009842  -0.998783 -0.0483378
 0.126639 0.0705003   0.49931 -3.44951e-05  8.75196e-05            1
-0.093914 0.0569959 -0.147471 0.00396082  -0.422931   0.906153
0.0652204 -0.116427 -0.144215    -0.41167 0.000885081    0.911333
  0.159013 -0.0538758  -0.499805 1.38168e-05 7.25973e-06          -1
0.0398471  0.179853 -0.476828    0.182838    0.983136 -0.00364219
-0.204488 -0.263001  0.227007 7.72803e-06          -1 2.30062e-05
 -0.140225   0.167832 -0.0727692   0.876084 0.00160335   0.482156
-0.0565899 -0.0930049  -0.499821 -5.70568e-05 -4.43985e-05           -1
0.0978997 0.0371624 -0.153343 -7.11817e-05    -0.224996      0.97436
-0.119789 -0.194406 -0.102859     0.756287 -0.000483179     0.654239
 -0.169271 -0.0732603  -0.410295    -0.901277    -0.433242 -0.000242819
-0.0729452  0.0173509   0.156856 -0.000296876   -0.0932079    -0.995647
  0.262696   0.212223 -0.0550965           1 3.68459e-06 4.17942e-06
-0.122533 -0.137506 -0.377049    -0.664465    -0.747319 -0.000138321
 0.262882 -0.248777 -0.195584            1  3.54189e-05 -7.89855e-05
-0.262321 0.0113031 -0.157217           -1 -7.89594e-06 -1.97148e-05
-0.0661743   0.263139  -0.244431 -2.73873e-05            1  -6.7507e-05
-0.0471392   0.178211  -0.332637  -0.277525   0.960718 -0.0009878
  0.262992 -0.0547443  -0.191601            1  2.42294e-06 -1.76776e-06
0.207199 -0.12127 0.101232 -0.00396608    0.792905   -0.609333
 -0.173114   -0.12817 -0.0922669 0.00166443   0.814585   0.580042
 -0.251587 -0.0399382   0.152637 -0.00372848    0.222427   -0.974942
  0.238602  -0.262945 -0.0408214 0.000190759          -1 1.27297e-05
 0.164859  0.263004 -0.124099  2.12369e-05            1 -1.93906e-06
0.263086 -0.15498 -0.19882            1 -5.52519e-06 -6.00594e-07
0.0786047  0.192056  0.136897   -0.528294 -0.00290106   -0.849057
 -0.12742  0.133063 -0.450253   -0.691946    0.721949 0.000552797
  0.263144 0.00611543   0.263106 0.000103222 7.82322e-07           1
-0.0698292  -0.161584  -0.141804    0.44046 0.00124135   0.897771
   0.15342  -0.262729 -0.0376405 6.06443e-05          -1 1.93126e-05
0.226245 0.156096 0.026743 -0.00396357   -0.975561   -0.219692
 0.083101 0.0764205    0.4997  5.1477e-05 6.92732e-05           1
 0.243806 -0.262924 0.0800518 0.000200305          -1 1.90251e-05
0.207559 0.221884  0.26312  5.47761e-05 -2.46506e-05            1
 0.125089 -0.135421  0.441305    0.689007   -0.724754 -0.00113413
  0.24592 -0.262934  0.069063 0.000139302          -1 1.68138e-05
0.0268414  0.137567  0.499627 6.15282e-05 3.76269e-05           1
-0.151623  0.230283 0.0453321    0.977857 0.000444557   -0.209275
0.0608509 -0.175835 -0.146147 -0.365153 0.0035881  0.930941
-0.0333078   0.253231  -0.263061 -5.07064e-05  0.000117145           -1
-0.133234 -0.127592 -0.484148   -0.676689   -0.736263 -0.00295191
0.215555 0.258745 0.263122  6.14249e-05 -3.08661e-05            1
0.0502208 -0.177235 -0.330692     0.268284     -0.96334 -0.000147291
0.146364 0.262892  0.17807 3.02052e-06           1 6.76355e-05
-0.0186542  -0.119532   0.499882 -3.06717e-05 -7.59532e-05            1
0.142526 0.129838 0.263844 9.43046e-05  0.00013095           1
-0.123157 -0.136751  0.374231   -0.663931   -0.747793 4.56579e-05
 0.158934 0.0934495 -0.340643    0.852769    0.522288 -0.00018467
-0.0743098 -0.0876659    0.13887   0.499332 -0.0117543  -0.866331
-0.140619  0.118815 -0.354088    -0.765167     0.643831 -0.000195638
  0.263021   0.236978 -0.0965112            1 -0.000101915 -5.04127e-05
  0.262643  -0.132372 -0.0858391            1 -0.000105446  1.50066e-06
 0.0042035 -0.0488518  -0.157825 -0.0591386 0.00386808   0.998242
-0.263127 -0.174462  0.199739           -1 -4.13899e-05  2.35146e-05
0.154585  0.10001 -0.43809     0.838006     0.545661 -0.000173554
-0.232288 -0.103715  0.119149 -0.00462095    0.611988   -0.790854
0.00043467  -0.263061   0.238494 -5.39515e-06           -1  7.25801e-05
-0.262964  -0.14834  0.153408           -1 -2.04551e-05  4.38898e-06
-0.166811 -0.263119 -0.203867 -5.19106e-05           -1 -2.95605e-05
 -0.120176 -0.0109107   0.157926 0.000511959   0.0206876   -0.999786
 -0.262648 -0.0474361   0.192215          -1 6.27509e-06 7.42073e-05
 0.144528 -0.263047  0.112244  1.01114e-05           -1 -4.19406e-05
 0.225343 -0.116863  0.106449 0.00140703   0.730897  -0.682486
-0.170568  -0.25262 -0.263087 -1.9076e-05 5.33571e-07          -1
-0.240085  0.140888 0.0718733 -0.000198505    -0.883265    -0.468874
 0.249746 0.0255734 -0.263203 0.000165625  3.4658e-05          -1
-0.102585  0.153335  0.315799   -0.530986     0.84738 0.000244419
-0.147432 -0.110442 -0.308302    -0.810063    -0.586343 -0.000186157
   0.158557 0.000292148   -0.499784 7.22424e-05 1.30343e-06          -1
  -0.151972 -0.00758788    0.157979 -0.00131449  0.00152714   -0.999998
0.0218799 0.0959807  0.156519    -0.13301 0.000151448   -0.991115
-0.052373 -0.262755   0.16892 -2.4067e-05          -1 6.35492e-05
  0.141852 -0.0164228  -0.157192 -0.0010943   0.122835   0.992426
 0.189546 -0.263025 -0.126019  7.24795e-05           -1 -4.28077e-05
-0.0934483 -0.0923678  -0.499794 -0.000144647 -0.000112347           -1
-0.0945732  -0.262713  -0.183872  1.65275e-05           -1 -6.67016e-05
-0.0429119   0.179351   0.347903    -0.240553     0.970636 -2.12727e-05
-0.216048   0.16888  0.263114 4.98898e-05 2.55724e-05           1
0.0318146   0.21202  0.263488 7.22236e-05 0.000126931           1
-0.233689 0.0932892  0.263219 -5.52426e-05  6.17535e-05            1
 0.120392  -0.22388 -0.263182  3.67354e-05 -9.50476e-05           -1
 0.137851 -0.122165 -0.263933 0.000239067  -0.0001872          -1
-0.0865433  -0.254227   0.263164 -4.63908e-05 -5.93108e-05            1
-0.202864   0.26289 -0.115421 -1.44605e-05            1  7.69029e-06
-0.0453359  -0.236863   0.263262 -3.46363e-05 -5.69638e-05            1
-0.263122 -0.216866 -0.178034           -1 -3.35632e-05 -1.02396e-05
0.0901122  0.189508 -0.129549  -0.554305 0.00288029   0.832309
0.0801329  0.124922 -0.499509 -2.07848e-07 -2.62574e-05           -1
 0.262981  0.206345 -0.209644            1 -5.96382e-07  5.25921e-07
  0.237989  -0.154714 -0.0332088 0.000721605    0.975264    0.221043
-0.263145 -0.262799 0.0818511 -9.9455e-05          -1 6.86903e-06
  0.184457 0.00677199   0.408792   0.999931 -0.0116921 0.00116298
-0.210522 -0.138515 -0.263191  -0.00010956 -3.60796e-05           -1
 0.170523 0.0613059  0.145563 0.000209491   -0.442373   -0.896831
  0.11472 -0.238929 -0.109135  -0.771854 0.00441034   0.635785
 0.104581 -0.155234  0.118232  -0.667836 0.00190515  -0.744306
-0.213798 -0.194937 -0.263055 -9.08061e-06 -8.04034e-05           -1
 -0.248008 0.00850736  -0.263203 -4.40019e-05  2.75305e-05           -1
-0.216405  0.263026  0.129202 -3.06401e-05            1 -9.85073e-06
 -0.159718 -0.0920006   0.440521   -0.864374   -0.502848 -0.00104765
 0.263076 -0.257401  0.209659           1 9.55218e-05 1.75659e-05
-0.0646849  0.0145237   0.499997 -3.60639e-05 -4.73375e-06            1
-0.00786039    0.263059    0.240895 -2.1049e-05           1 -9.7243e-06
 -0.163314 -0.0521441   0.499457 -2.21481e-05  7.78344e-05            1
-0.0884902  0.0524741  -0.148982 0.00422487  -0.403338   0.915041
  0.257925 -0.0167979   0.157656 0.00216879    0.19419  -0.980961
 -0.19828 -0.263028 -0.216377 -1.43841e-05           -1  1.71743e-05
  -0.101094 -0.00551022    -0.49998 -7.59063e-05  8.38795e-06           -1
 0.262539  0.181415 0.0246709            1  7.70817e-05 -2.62206e-05
 0.115381  0.143685 -0.445272    0.612698    0.790317 0.000156259
-0.157132  0.202085 -0.016185    0.999861 0.000679767   0.0166726
0.0454683 -0.222303  0.151824   -0.355002 -0.00112207   -0.934865
0.0271235 -0.125428 -0.499807  4.95372e-05 -0.000153534           -1
 -0.157869  -0.175527 -0.0160571    0.996689 0.000358404   0.0813086
 0.149742 -0.249526 -0.050643   -0.962023 -0.00138234    0.272966
0.262937 0.100824 0.198326            1  1.55231e-05 -5.14509e-06
-0.199331  0.106055 -0.116897 0.00105207  -0.713401   0.700755
 0.082402 -0.262987  -0.22377  1.79928e-05           -1 -6.18303e-05
   -0.18469 -3.2462e-05   -0.344313   -0.999468   0.0325587 -0.00204718
 0.142166 -0.188305 -0.263327  4.01349e-05 -0.000115395           -1
 0.262702 -0.153675 -0.094763            1 -5.74673e-05  6.39655e-05
-0.142915  0.210304 0.0678858     0.894686 -0.000821169    -0.446695
-0.136548 -0.186028  0.263489 -3.58128e-05 -9.01472e-05            1
  -0.1395  0.231419 -0.263116 8.73069e-06 5.43657e-05          -1
 0.209855 -0.263129  -0.22988  1.1832e-05          -1 4.92757e-06
-0.133598 -0.127108  0.461133 -0.738085 -0.674707 0.0011413
-0.112254  0.146244  0.369654   -0.624599    0.780946 0.000187167
-0.156675 0.0968586 -0.330558   -0.822888    0.568204 -0.00025852
0.0830242 -0.205088 -0.134551   -0.515791 -0.00101992    0.856714
  0.22828 -0.262891  0.224457 -3.66724e-06           -1  3.47115e-05
-0.263096 -0.231377 -0.122453           -1 -1.75486e-05 -1.91389e-05
 -0.108906 -0.0320345  -0.499948 -8.14769e-05  3.84064e-05           -1
0.0910054  -0.20408 -0.263526 0.000119124 -0.00018792          -1
 0.130629 -0.115834  0.107826 0.00307426    0.63016  -0.776459
-0.0779297  -0.182083   0.263529 -5.39667e-05 -0.000145619            1
-0.124526 -0.135745  -0.40121   -0.644442   -0.764653 0.000461152
 0.166467  0.263105 -0.216287  3.81027e-05            1 -4.61817e-06
-0.262804 0.0804505 -0.205124           -1  6.92017e-06 -5.78913e-05
-0.218738  0.176955  0.263117 7.15478e-05 1.01466e-05           1
 -0.26279 -0.133076 -0.170708           -1 -1.43565e-05 -2.18564e-05
  0.216457  -0.154982 -0.0310733 0.00191865   0.971327   0.237739
 0.262714  0.226286 -0.222384           1  4.3608e-06 7.33211e-06
 -0.156778 -0.0965262   0.309135    -0.854553    -0.519363 -0.000739048
  0.195972   0.147834 -0.0572973 -0.00636023   -0.923901    0.382578
-0.0308368   0.232498  -0.154965    0.197886 -0.00131875    0.980224
 0.263109 -0.122143  0.227116            1 -5.97609e-05 -0.000124252
 0.149184 -0.108405  0.357137    0.817947   -0.575294 0.000626477
0.000110092    0.131241       0.158    0.0684249 -0.000960683    -0.997656
-0.100469 -0.262817  0.151825 -9.12697e-06           -1  4.99636e-05
  0.113178 -0.0203509   0.499888 8.68157e-05 1.64921e-08           1
0.0790898 0.0387583  0.152943 0.00257168  -0.261714  -0.965142
 -0.129771   0.173415 -0.0904095    0.852015 0.000615101    0.523517
  0.211762 -0.0117395   0.263256  0.000215944 -2.46606e-05            1
  0.193467   0.262913 -0.0955492 4.38689e-05           1  4.2862e-05
-0.155878 -0.099187  0.359402    -0.850208    -0.526447 -0.000213027
  0.189985   0.262875 -0.0911302 2.07824e-05           1 6.91428e-05
 0.120598 -0.228038  0.101992  -0.754596 0.00142034  -0.656188
0.0627888  0.236313  -0.14461   -0.393361 0.000362542    0.919384
-0.018773 -0.182882  0.487808 -0.0759094  -0.997074 0.00900744
-0.224329 -0.151046  0.048452 -0.00117623    0.922149   -0.386833
 0.122012 -0.156874 -0.100625  -0.819675 0.00320771    0.57282
  0.227136 -0.0185935  -0.156928 -0.00183263    0.115017    0.993362
  0.175831  -0.154209 -0.0376407 -0.000561857     0.972211     0.234104
 0.262877 0.0894354  0.183643           1 3.42714e-05 4.92801e-05
-0.154641  0.186348 0.0324521    0.977326 -0.00133161   -0.211737
 0.262677 -0.213343 -0.248149            1 -1.40012e-05  3.04111e-05
 0.262506 -0.175272 0.0142383            1  6.61742e-05 -1.99918e-05
  0.26308 -0.261136  0.188618           1 7.63082e-05 4.24778e-05
-0.075963  -0.03348  0.499988 -6.63276e-05  6.41137e-05            1
 0.263137 -0.159147  0.243874            1 -5.86918e-05  -0.00010544
 0.219255 -0.199843  0.262998  3.37684e-05 -2.13141e-05            1
 0.174996 0.0575548  0.334682    0.975485    0.220066 -0.00062323
0.0550049  0.263116  0.255273 -1.2683e-05           1 1.71801e-05
  0.184226 0.00592529  -0.321058  0.999821 0.0188796 0.0010917
 0.167382 0.0233604  0.156449 0.00028471  -0.204008  -0.978969
0.107053 0.101425 -0.49961 2.49325e-05 2.38806e-05          -1
 0.216213  0.159162 -0.263088   0.00010311 -6.02988e-07           -1
 0.235719  0.262978 0.0749442 0.000236258           1 -4.7677e-06
-0.0447398   0.125495  -0.151616    0.303062 -0.00261685    0.952967
  -0.1032    -0.161 -0.119129   0.630771 0.00122502   0.775968
0.152531 0.234437 0.263177 -8.26229e-05  8.92213e-05            1
-0.220604 -0.153211 -0.263108 -5.77949e-05  -2.9504e-05           -1
  0.21278 -0.263029 0.0599769 6.08493e-05          -1 1.56061e-05
-0.0607707   0.148871   0.145893   0.316171 0.00115338  -0.948702
 -0.23634 -0.135164  0.263058  2.24097e-05 -9.73566e-05            1
 0.262743  0.130286 -0.158085            1  5.54672e-05 -6.33033e-05
  -0.15361 -0.0062182  -0.157717 -0.000666534     0.016054     0.999871
  0.153089  -0.176308 -0.0389871   -0.981118 -0.00159232    0.193406
 -0.03011 -0.181904  0.287933   -0.202408   -0.979267 -0.00818284
-0.00455027    0.113022    0.499895 3.83066e-05 2.36199e-05           1
 0.262523  0.167871 0.0677523           1  0.00013576 3.82064e-05
-0.0732751  -0.102341   0.139829   0.497071 -0.0130287  -0.867612
 0.0823816 -0.0930497   0.134939   -0.55841 0.00162525  -0.829564
-0.164223  0.082074    0.1347 0.000741657   -0.577827   -0.816159
 -0.169207 -0.0727299   0.465578   -0.923336   -0.383993 0.000394481
-0.178518 0.0454182 -0.367862   -0.968049    0.250759 0.000104143
 0.262973   0.13118 -0.194722           1 1.39971e-05 8.69285e-06
-0.157785  0.263024 -0.173339  -1.8455e-05            1 -1.44359e-05
0.0212893  -0.26308 -0.255941 -3.14691e-05           -1 -2.01167e-07
 -0.263119   0.242308 -0.0275003          -1 4.57196e-06 2.12464e-05
-0.140843 -0.118577  -0.26361 -0.000153225 -0.000133476           -1
 -0.184428 0.00565336   0.482618   -0.999924  -0.0118663 -0.00326819
 -0.134392 -0.0372315  -0.153499 0.000425598    0.224823      0.9744
-0.220617 0.0727712  -0.26338 -4.4914e-05 3.00603e-05          -1
0.0637147  0.173067  0.293995   0.29415  0.955758 0.0015867
0.236012 0.262925 0.234059 -7.72228e-05            1  2.72696e-05
