-0.250465 -0.214986 -0.263869 2.94913e-05  3.9635e-05          -1
0.138593 0.108809 0.498468  2.3503e-05 7.53618e-05           1
 0.175805 0.0561693 -0.318571    0.925261    0.379331 0.000428737
-0.0976802  -0.203607  -0.123799    0.64642 0.00190836   0.762979
 0.154406 -0.020952 -0.498352 6.08992e-05  5.6886e-06          -1
-0.0747865  0.0707302   0.142962 0.000188552   -0.274871   -0.961481
0.0611595 -0.171514  0.144659  -0.392546 0.00435594  -0.919722
-0.0341054  -0.261678  -0.201074  5.96084e-05           -1 -8.90636e-05
-0.118098  0.139793  0.478169  -0.670814   0.741625 0.00105078
  -0.18361 0.00765987   0.404697   -0.999038   0.0438463 0.000170766
 0.242852  -0.26184 -0.025201 0.000122506          -1 6.10011e-06
 0.16185 -0.25614 0.263693 8.09128e-06 2.57875e-05           1
 0.118721  0.141047 -0.291623     0.586936     0.809634 -0.000127783
  0.15578 -0.097468  0.341128    0.840103   -0.542426 0.000891449
0.236542 0.261562 0.191471 2.44785e-05           1  3.3055e-05
 0.208242 -0.100874  0.263756 0.000147703 8.89066e-05           1
-0.0282322  -0.182083  -0.363363   -0.082673   -0.996575 -0.00170207
  0.261594  -0.255583 -0.0380273            1  8.91426e-05 -1.42415e-06
  0.26159 -0.257574 -0.195626            1  3.55147e-05 -4.39873e-05
-0.111171  -0.14576 -0.417483   -0.610326    -0.79215 0.000540535
 -0.150866   0.236917 -0.0506659   0.927782 0.00569618    0.37308
0.0979984  0.172971  0.122397  -0.558809 0.00500379  -0.829281
0.0372061  0.261616 -0.231701   1.2572e-05            1 -6.58976e-05
  0.226299  -0.157982 -0.0223974 0.0010411  0.979234  0.202731
  0.176389 -0.0510938  -0.316351   0.946837  -0.321709 0.00173959
0.145082  0.11185 0.395168    0.826139    0.563466 1.57338e-05
-0.167416  -0.26144  0.023958 -5.74469e-06           -1  2.74085e-05
0.0330807  0.180128  0.419636     0.158542     0.987352 -0.000290028
0.0580571 -0.261717 -0.193927  -4.4576e-05           -1 -2.02931e-05
0.0374804 -0.179527  0.457503    0.158724   -0.987323 -0.00034702
-0.261327  0.112907  0.118564          -1 3.69502e-05 4.71552e-05
-0.00552189    0.113116    0.498584 2.54046e-05 3.00239e-05           1
-0.146101  0.261806 -0.102245 2.62796e-05           1 7.31026e-06
-0.112147  0.145674  0.316364  -0.634229   0.773144 0.00110571
-0.0409633   0.250005  -0.152062  0.262631 0.0017746  0.964895
-0.243062  0.118945 -0.103734 0.00182952  -0.715655   0.698452
  -0.184148 -0.00240541    0.326328   -0.999726   0.0234124 0.000490426
 -0.261558 -0.0873754  -0.154352           -1  1.40993e-05 -1.09788e-05
   0.13278 -0.0789723   0.498611 2.50903e-05 7.70864e-05           1
-0.0912279   -0.15971  -0.417527   -0.510511   -0.859871 0.000567417
  0.0673167 -0.00727207   -0.498312 7.35981e-06 4.65584e-05          -1
-0.0450713  0.0351326   0.498583 -2.55361e-05  1.63316e-05            1
0.101664 0.261807 0.186357 -1.3754e-05           1 5.33424e-05
  0.189393 -0.0734718   -0.26312 0.000164567 7.43566e-05          -1
-0.234851 -0.157977 0.0102561 -0.000281504     0.999878   -0.0156139
 -0.261724 -0.0762856   -0.23886           -1  6.23274e-06 -1.31091e-05
0.149021 0.159761 0.263689 9.20219e-05 9.35257e-05           1
 -0.176245 -0.0531061   0.411111   -0.951227   -0.308492 0.000105612
 0.0135643 -0.0410228   0.155464 -0.0971195 0.00779641  -0.995242
-0.0563743   0.117001   0.498573 -8.23033e-05  9.05497e-05            1
-0.230835  0.128782 0.0923643 -0.00125043    -0.84641   -0.532531
  0.197055    0.15613 -0.0348412 -0.000673923    -0.979731     0.200319
 0.236858 -0.049911  0.263462 0.000142602 4.39284e-05           1
 0.205407  0.239556 -0.263544 -2.10671e-07  8.32209e-05           -1
-0.107771  0.148879 -0.303967   -0.631278    0.775557 0.000108004
-0.113648 -0.144699   0.29791   -0.600512   -0.799616 0.000677599
0.0554652  0.214498 -0.263249 9.69252e-05 0.000130997          -1
0.248797 0.261624 0.168088  7.4248e-05           1 8.86265e-06
-0.0257104   0.184304  -0.263282 -4.34862e-05  0.000187463           -1
 0.063979 -0.106255  0.498553 5.08381e-05  0.00011027           1
-0.201549  0.155173   0.26396 -1.40738e-05  6.61308e-05            1
  -0.238207 -0.00925489    0.158986 -0.00378374     0.21064   -0.977556
 0.162773 0.0859726 -0.432257     0.880187     0.474627 -0.000592344
-0.255637  0.261828 -0.142872 4.86037e-06           1 7.13748e-08
-0.261523 -0.179865 0.0357726          -1 3.68079e-05  5.5959e-06
0.0799203  0.164078  0.447177     0.437143     0.899392 -0.000173735
  0.189149   0.129992 -0.0890488 0.00143538  -0.786212   0.617956
-0.0197682 -0.0677298   0.155363   0.0356647 0.000607332   -0.999364
0.0412801 -0.190729  0.263384 7.27229e-05 0.000106169           1
 0.120663 -0.152631  0.263724 6.85493e-05 0.000121179           1
 -0.11442 -0.231086  0.108183   0.750085 0.00265358  -0.661336
 0.163085 0.0725488 -0.138813 0.000280498   -0.451789    0.892125
 -0.173349 -0.0616684   0.393978  -0.947328  -0.320266 8.6617e-05
0.261695 0.240854 0.181922           1 2.16527e-05  2.8584e-05
 0.238929  0.261723 0.0120304  0.00018426           1 1.14428e-05
-0.0626883  -0.221423  -0.144807   0.309797 0.00333476   0.950797
-0.032853 0.0825443  0.153594   0.182623 0.00195397  -0.983181
-0.0765949   0.080671  -0.138007   0.352975 0.00467876   0.935621
0.237328 0.250759 0.263861 6.24648e-05 2.73776e-05           1
-0.0886707   0.261641  -0.162015 1.66338e-05           1 0.000104095
  0.11555 -0.184334 -0.107206 -0.698805 0.0108772   0.71523
-0.0291765 -0.0184371   0.498597 1.64895e-05 2.73955e-05           1
 0.149382 -0.261832  0.251913 4.68849e-05          -1 3.63585e-05
-0.112749 -0.145224  0.391034   -0.625522   -0.780207 0.000152396
-0.121281   0.13746  0.380792   -0.675027    0.737793 3.67836e-05
-0.132728  0.156504  0.085695   0.759386 0.00565114  -0.650616
-0.187346 -0.261508  -0.16368  4.99921e-08           -1 -8.92089e-05
-0.261476  0.234639 0.0708224           -1  2.27759e-05 -6.77712e-06
-0.142031 -0.111804  0.498553 -0.000125648  0.000118875            1
 -0.261449  -0.153922 -0.0689949           -1  6.86767e-05 -3.49397e-05
0.0869643  -0.01547 -0.498289 5.40639e-05 1.75606e-05          -1
-0.012572 -0.197926  0.263232 -1.09797e-05   8.7904e-05            1
-0.0826597   0.163934   0.457406   -0.408768    0.912638 -0.00068618
 -0.261619  -0.231404 -0.0324809           -1  1.06647e-05 -1.09345e-05
 0.143654 -0.261715 -0.161995  3.43586e-05           -1 -6.82304e-05
-0.198571  0.261696 -0.232818  3.40342e-06            1 -3.35762e-05
 0.261552 -0.163961 0.0641723            1  7.58547e-05 -1.22714e-07
0.0292166  0.108402  0.153962  -0.147839 0.00128529  -0.989011
-0.0503249 0.00663445  -0.155436 -0.00052479   0.0225844    0.999745
-0.0992225  -0.261652  -0.186037 -8.99629e-07           -1 -5.47126e-05
-0.196903  0.128813 0.0912511 0.000235157   -0.834417   -0.551134
 0.258627 0.0835937  0.263483 0.000126469 5.90099e-05           1
  0.158089   0.206744 0.00817417  -0.999464  0.0053337 -0.0322956
-0.196242 -0.261592 0.0768193 -3.74087e-06           -1 -5.23492e-06
-0.169737 0.0701926  0.333328    -0.944898     0.327366 -0.000551066
-0.0311377   0.205797   -0.26328 -4.91761e-05  0.000175141           -1
 -0.0905502 -0.00698229    -0.15575 -7.72275e-05    0.0661076     0.997812
-0.261585 -0.230931 0.0243425           -1 -3.58623e-06 -5.22413e-06
 0.138927 -0.132373  0.263786 0.000108541 0.000120285           1
 0.166858 -0.261829  0.235175 3.21023e-05          -1 5.60064e-05
 0.160645  0.261675 0.0268435  -1.1524e-05            1 -2.54772e-05
  -0.26162   0.132665 -0.0994171           -1  2.02101e-05 -4.15295e-05
-0.123917  0.169219 0.0968614   0.760962 0.00670366  -0.648762
-0.118587 -0.155449 -0.263682 -3.25117e-05  0.000203223           -1
-0.0478685   -0.18159   0.149963   0.281049 0.00304579  -0.959688
  -0.184294 -0.00907711   -0.388119   -0.991332   -0.131382 0.000310879
  -0.22597 -0.0746334   0.263589 -7.80511e-05  4.08243e-05            1
0.0593582 0.0799937  0.143467 -0.366263 0.0130957 -0.930419
  0.101819 -0.0808964  -0.134396 -0.0011382   0.455376   0.890298
-0.183922 0.0282648 -0.153813 -0.000462628    -0.224457     0.974484
 0.261855  0.224541 -0.061291            1   5.3956e-05 -1.23244e-05
-0.261258 -0.157115   0.18149          -1 2.50203e-05 1.89906e-05
0.0193624 -0.261727 -0.220349 -5.84336e-05           -1  7.53253e-06
0.0110495 -0.183506  0.384929   0.0562445   -0.998417 0.000179474
 0.104737 -0.248125   0.26365 -1.59146e-05  3.76742e-05            1
-0.160071 0.0900446 -0.384947    -0.834927     0.550361 -0.000263293
-0.131839  -0.13196 -0.263689 -5.13577e-05  0.000191545           -1
-0.261318 -0.199458 -0.246901           -1    2.736e-05 -2.60897e-05
 -0.261693 -0.0724591  -0.205602           -1  6.62747e-06 -9.02164e-06
 0.162712 0.0841512  0.435491    0.862597    0.505891 0.000331928
   0.12446 -0.0376998   0.152431 0.00141403   0.250439  -0.968131
0.206382 0.207137  0.26378 6.22988e-05  2.9705e-05           1
 -0.140864    0.26182 -0.0740256  6.80839e-05            1 -3.24186e-05
-0.0941474  -0.147875  -0.498412 -0.00013188 7.29197e-05          -1
 0.0853502 -0.0360434  -0.498284 5.48746e-05 6.65369e-06          -1
-0.0590531   0.173775   0.391922   -0.312859    0.949799 0.000720346
  -0.120701 0.000367347    0.157516 0.000738594   0.0182252   -0.999834
-0.0954016   0.166459  -0.263628 -0.000105953  0.000185414           -1
 -0.12699 0.0254225 -0.498274 -6.10177e-05  2.87133e-05           -1
 0.073968 -0.168252  -0.30768    0.479187   -0.877712 -0.00112138
-0.155689 -0.218663 0.0308942   0.984131 0.00297463  -0.177419
 -0.261285 -0.0243375   0.224916          -1 1.39069e-05 3.80377e-05
 0.261496 -0.135518  0.100689          1 0.00013753 9.2127e-05
0.0371704  0.179403   0.37659    0.258761    0.965941 0.000294285
 -0.175108 -0.0581736   0.286363   -0.908317   -0.418282 0.000109284
  0.159011   -0.15636 -0.0407771 0.00126102    0.89251   0.451026
  0.167461 -0.0739627  -0.311697   0.922733  -0.385438 0.00117058
 0.146898 -0.261734 -0.242307   4.4186e-05           -1 -7.24323e-05
-0.261583  0.201623 -0.149005           -1  8.33773e-06 -1.36487e-05
-0.0467302  -0.193352  -0.150281   0.317168 0.00171097   0.948368
-0.0347734  -0.261685  -0.216657  5.67606e-05           -1 -7.13502e-05
0.100171 0.261852 0.252186  1.8261e-06           1 4.62428e-05
-0.0893327   -0.26168  -0.205476 -3.29485e-05           -1 -2.18082e-05
-0.261204 -0.118513  0.243968          -1 2.51773e-05 2.74625e-05
0.0234752   0.22964 -0.156236  -0.195043 0.00706808   0.980769
 0.119707 -0.261787  0.232508 4.30686e-05          -1 4.07828e-05
0.0150756   0.18252 -0.274106     0.130735     0.991417 -0.000214756
  0.188454 -0.0248995  -0.154758 0.00221252   0.218953   0.975733
  0.175781 -0.0519913  -0.379845     0.978182    -0.207748 -0.000876333
0.147784  0.10845  0.47604     0.778235     0.627973 -0.000375048
 -0.191017   0.130904 -0.0888829 0.000392337   -0.823094    0.567905
-0.0182225 -0.0806807   0.498568 -1.72523e-05   2.7779e-05            1
0.261838  0.25817 0.121752           1 4.34896e-05 1.14363e-06
-0.173843 0.0577035 -0.368682    -0.93789    0.346933 2.37165e-05
 0.0892162 -0.0536992   0.148001 0.000827779    0.250765   -0.968048
-0.261565  -0.22888 0.0548562           -1  5.47956e-06 -1.73485e-06
 0.225898  0.185053 -0.263551 5.74674e-05 6.57221e-05          -1
 0.148167 -0.106935 -0.288367    0.833871   -0.551956 -0.00191223
   0.261607   -0.253658 -0.00747156            1  9.32076e-05 -1.21285e-06
-0.261456 -0.171071 -0.164579           -1  1.74194e-05 -2.20635e-05
0.261588 -0.06867 0.148529           1 2.97756e-05 3.63717e-05
 0.124204 -0.261694 -0.139952  2.73988e-05           -1 -6.20216e-05
-0.261598  0.209447  -0.12819           -1  1.05446e-05 -1.60482e-05
  0.172196 -0.0621026  -0.476366   0.921973  -0.387253 0.00041839
 0.261537 -0.204997  0.134889           1 4.21214e-05 3.09097e-05
-0.0157176   0.164633   -0.49843 -3.4247e-06 3.54768e-05          -1
 0.0483382 -0.0169876   0.155283 0.000943273   0.0142472   -0.999898
  0.175669 -0.0529885  -0.368493    0.977691   -0.210043 -0.00142324
-0.0981708  -0.155157  -0.397966   -0.513564   -0.858051 0.000210583
0.033745  0.13811 0.498595 6.53439e-05 3.59692e-05           1
0.136428  0.12202 0.376456     0.728331     0.685226 -0.000129455
 0.102404 0.0175281 -0.498297 1.71185e-05 5.35089e-05          -1
-0.261196 -0.127828  0.238721          -1 2.60483e-05 2.99501e-05
 0.212169 -0.153855  -0.26345 7.18294e-05 3.25281e-05          -1
-0.242037   0.26169  0.032967 -0.000109767            1   1.4609e-05
0.0933026 0.0805522  0.135139 0.00429135  -0.426038  -0.904695
  0.261757   0.180506 -0.0836497            1  4.86864e-05 -7.17618e-05
-0.181502  0.156406 0.0304081 0.0042287 -0.990061 -0.140575
 -0.261452  -0.150905 -0.0618945           -1  7.65229e-05 -3.00432e-05
-0.190929 -0.261539 -0.145849 -3.64943e-05           -1 -6.93346e-05
 -0.20416 -0.257489 -0.263914  4.1473e-06 1.99674e-05          -1
 -0.170839 -0.0692669   0.441793    -0.933227    -0.359286 -0.000186495
 0.182322 0.0185067  0.473254   0.974308   0.225183 0.00415201
-0.110858 -0.225467  0.111907    0.74977 0.00277282  -0.661693
 0.145357 -0.261785  0.191312 4.63401e-05          -1 8.55698e-05
0.139592 0.111186 0.112952 -0.00902572   -0.720136   -0.693775
 0.261749 0.0349488  0.200105            1  2.57589e-05 -9.28836e-06
-0.261783 0.0349052 -0.215049           -1  6.82883e-06 -1.30584e-05
0.202962 0.216636 0.263756 5.83754e-05 2.65116e-05           1
0.0424979 -0.178837  0.367078    0.310849   -0.950459 3.91303e-05
 0.205783 -0.261547 -0.231342  9.24949e-06           -1 -2.11901e-06
 0.261547 -0.132206 -0.193772           1 1.52634e-05 2.39428e-05
  0.242042 0.00377727  -0.157283 -0.00335177   0.0631444    0.997999
-0.233803  0.261449  0.260812 7.81275e-05           1 3.76721e-06
-0.00760107 -0.00920774    -0.49834 1.57683e-05 2.62648e-05          -1
-0.261359 0.0628972  0.249681          -1 8.60599e-06 1.23715e-05
  0.261571  -0.196242 -0.0859654           1 4.49568e-05 1.22825e-05
  0.257009 -0.0945661   0.263676 0.000127958 6.53152e-05           1
-0.261116 -0.229799  0.215192           -1  9.28975e-05 -4.54986e-06
 0.261606 -0.094223 -0.210264           1 6.92325e-06 5.90805e-05
  0.20568 -0.261775 -0.136216  8.98865e-05           -1 -5.12787e-05
-0.113771 0.0853938 -0.131128 0.00431602  -0.587186    0.80944
0.0300738 -0.050202 -0.154146  -0.185252 0.00582269   0.982674
0.0861849 -0.161788 -0.303637      0.43053    -0.902576 -0.000538638
 0.142485 -0.253561 -0.263387 -8.37301e-06  7.13613e-05           -1
-0.261341 0.0443417  0.254986          -1 6.11193e-06 1.06677e-05
0.0580077 -0.162497 -0.498387 5.09436e-05 0.000133558          -1
   0.16541 -0.0282457   0.498616 5.92416e-05 1.18199e-05           1
 0.189992 -0.261594 -0.228106  5.75273e-05           -1 -4.81975e-05
0.0413538  0.154173 -0.152015  -0.185997 0.00162642   0.982549
 -0.235585  -0.261556 -0.0717076 -0.000109907           -1 -2.46886e-05
0.0616664  0.174356  0.263384 8.00899e-05 0.000104836           1
 0.262433 -0.218079  0.263856 -2.41828e-06  9.31583e-05            1
 0.261596 -0.243223 -0.034807            1  9.04192e-05 -1.72213e-06
-0.204178  0.261707 -0.212098  2.09264e-05            1 -3.68106e-05
-0.0730964    0.26181   0.227299 2.25301e-05           1 3.25832e-05
-0.0771823 -0.0803187  -0.498356 -7.72774e-05  7.44789e-05           -1
 0.261495 -0.146843  0.163245           1 2.86913e-05 6.81641e-05
 0.137544  -0.12061 -0.384001    0.767546   -0.640994 0.000270971
-0.205137 -0.102568  0.119165 -0.000696505     0.645225    -0.763992
-0.261663 0.0500956 -0.165043           -1  1.60993e-05 -4.72635e-05
-0.26141 0.186178 0.100137          -1 5.04661e-05  2.1929e-05
  0.195454    0.26166 -0.0516444 2.49257e-05           1 1.47035e-05
0.00332767 -0.0154978   0.498611 9.74231e-06 3.72276e-05           1
  0.157899  -0.242177 -0.0114497  -0.984443 0.00408972   0.175655
 0.124047  0.261591 -0.149104 -2.51696e-05            1  3.20031e-05
-0.117865 -0.261619 -0.167725 -5.29582e-06           -1 -0.000101289
-0.165206 0.0801259  0.396281   -0.890811    0.454374 0.000179483
0.0518383 -0.131727  0.148373  -0.384253 0.00299021  -0.923223
0.0343111  0.240237  0.263305 3.90574e-05 0.000104618           1
 -0.178906 -0.0272023   0.155538 -0.00370106    0.219118   -0.975691
 0.128287 0.0960021 -0.498355 -4.20853e-05  5.80566e-05           -1
-0.0916043    0.15854  -0.455601  -0.524071   0.851674 0.00110623
 -0.261616   0.207596 -0.0714066          -1 3.10157e-05 -1.6222e-05
0.0460817  0.177172  0.387434    0.25508    0.96692 0.00039376
-0.0503283 -0.0689113   0.498556 9.07198e-06 3.80881e-05           1
-0.0153637  -0.181142  -0.498391  4.5234e-05 0.000125567          -1
-0.177913 0.0435257 -0.399281    -0.974064     0.226274 -0.000289041
 0.228268  0.132338 0.0884269 0.000321202   -0.794714   -0.606983
  0.128839 -0.0732703  -0.498328 5.43729e-05 6.55897e-05          -1
-0.0375883   0.180365  -0.153329   0.287691 0.00636884   0.957702
 -0.245523  -0.261517 -0.0403006 -9.69029e-05           -1 -1.50628e-05
  0.15425  0.100516 -0.392016    0.871888    0.489706 0.000292031
0.0820744  0.174879 -0.134664  -0.552282 0.00260264   0.833653
-0.185192 -0.261557  0.082601  1.34905e-05           -1 -1.73204e-05
0.0165065 0.0497675 -0.156469  -0.103158 0.00942272    0.99462
  0.261834   0.187173 -0.0224338           1 3.59398e-05 3.36762e-05
-0.0682546   0.261621  -0.239845  -2.6964e-05            1 -7.48272e-05
0.0290403 -0.181536  0.317865     0.143679    -0.989624 -0.000978569
0.0963722  -0.15603 -0.394521     0.550575    -0.834785 -0.000184538
 0.159438   0.26156 -0.139501 3.18525e-05           1 -2.5474e-05
 0.261745 0.0368917  0.186905           1  2.4369e-05 1.70336e-05
-0.246863 -0.108553  0.263718 -2.14554e-05  5.48517e-05            1
-0.0826955   0.131917   0.498584 -0.000107059  0.000104139            1
0.0735109 -0.168348 -0.406493   0.448374  -0.893846 0.00012129
-0.181824  0.163772   0.26398 -5.68278e-05  0.000106619            1
-0.177269 -0.261536 -0.178266 -3.33499e-05           -1 -7.62642e-05
 0.261553 -0.153765 0.0446796            1  6.04259e-05 -1.83189e-05
-0.168349 -0.165017  0.263955 -7.81481e-05   9.8903e-05            1
-0.135382  0.123151 -0.347706    -0.739761      0.67287 -0.000234688
 0.10497 0.236014  -0.1185  -0.697015 0.00258182   0.717051
 0.086664 -0.161821  0.482436   0.521914  -0.852998 0.00027417
0.107223 0.139438 0.114429  -0.711245 0.00612756  -0.702918
 -0.12616 -0.134136 -0.303548   -0.665468   -0.746425 -0.00125592
  0.254036 -0.0369743    0.26337 0.000160072 3.56042e-05           1
0.0819251 -0.168184  0.263571 6.32134e-05 0.000161651           1
0.261385  0.23608 -0.25188            1  1.38354e-05 -2.02564e-07
0.0337604  0.158617 -0.153581  -0.180264 0.00199077   0.983616
 -0.183149 -0.0177352  -0.385267   -0.989847   -0.142136 0.000131174
-0.0309554   0.261601  -0.153214 -3.96973e-05            1 -6.51595e-05
 0.261624  0.193089 -0.160561           1 1.73357e-05 2.61063e-05
  0.188812 0.00243942   0.263344 0.000183724 2.50684e-05           1
 0.126447  0.109796 -0.498361 -4.78818e-05  5.30477e-05           -1
-0.0667998   0.179639   0.142819    0.46717 0.00340794  -0.884161
  0.14527 -0.110629 -0.362627    0.801382   -0.598153 0.000586723
 0.261509 -0.132184  -0.13944            1  7.92404e-05 -9.60155e-05
-0.20998 0.261522 0.172102 3.26067e-05           1 4.32085e-05
0.254288 -0.10248 0.263749 0.000120249 6.74486e-05           1
0.261729 0.213294 0.169904           1 6.73949e-06 3.83459e-05
  0.113678 -0.0209332   0.498573 8.56322e-05 2.43266e-06           1
-0.159681  0.261559  0.137488  2.8551e-05           1 -3.9777e-05
0.0596461  0.172636  0.437084    0.327989    0.944682 9.47268e-05
0.00311893  -0.183904    0.31725  -0.0334514   -0.999438 -0.00208688
 0.142324 -0.243982  0.263688 -1.95781e-05  2.86598e-05            1
 -0.194167 -0.0103195   0.263337 -0.000105587  5.80874e-05            1
 -0.206746 0.00613501  -0.263233 8.61868e-06 5.80468e-05          -1
-0.0245412   0.138534  -0.155545  0.077677 0.0024594  0.996976
-0.0876702   0.141443   0.498586 -0.000112334   0.00011015            1
   0.184548 -0.00590384   -0.331513     0.999817    0.0191359 -2.95302e-05
 -0.181564 -0.0280554  -0.417368    -0.98377   -0.179435 0.000232111
 0.261519 -0.120438 -0.156041            1  5.72836e-05 -9.19696e-05
 0.128317  0.131562 -0.353767    0.722992    0.690856 -1.6728e-05
0.111801 0.144779  0.45756     0.652608     0.757695 -0.000983553
-0.0330966   0.180695   0.477481  -0.079096   0.996866 0.00142949
 0.185555 0.0584268 -0.146129 0.000652943   -0.443267     0.89639
0.0630506 -0.172447 -0.378415   0.365204  -0.930928 0.00036799
 -0.120012 -0.0711357   0.498541 -9.92801e-05    8.923e-05            1
  -0.179046 -0.00675954    0.498622 -2.14352e-05  1.84792e-05            1
 -0.13825 -0.121369 -0.325424    -0.773951    -0.633246 -0.000544121
0.0325932 -0.148578 -0.153575  -0.176778 0.00114099    0.98425
   0.184463 -0.00527714   -0.342444     0.999918    0.0128186 -0.000759866
 0.164961 -0.261825  0.229373 4.64903e-05          -1  4.7004e-05
-0.0922032 -0.0178198   0.155849 -0.00037758   0.0248605   -0.999691
  0.221113  -0.134188 -0.0831871 0.00111379   0.818604   0.574358
-0.147606  0.186923 0.0597998   0.926757 0.00404958   -0.37564
 0.261774  0.226402 -0.110787            1  0.000107712 -5.85581e-05
-0.101105 0.0758695 -0.498312 -5.65996e-05  3.35895e-05           -1
 0.261709 0.0141728   0.16903            1   2.1481e-05 -2.69739e-05
-0.148887 -0.108859  0.429596    -0.814484    -0.580186 -0.000523421
-0.0354023    0.18045   0.296164   -0.273668    0.961824 0.000374009
-0.082174  0.216129 -0.134839   0.535353 0.00336094   0.844622
 0.252142   0.26142 -0.201181 7.23122e-05           1 2.76122e-06
 0.201595 -0.261778 -0.131655  8.80124e-05           -1 -4.85887e-05
-0.141186 -0.218879 -0.263686  -1.568e-05 3.96361e-05          -1
  -0.1288 0.0406494  0.498574 -6.27268e-05  9.78068e-06            1
  0.26163 -0.104324  0.258407            1  1.97531e-05 -9.87234e-05
0.203582 0.258842 0.263745 5.28556e-05 2.60943e-05           1
-0.0539253  -0.175969   0.312558  -0.379538  -0.925175 0.00117957
  0.254511 -0.0779206  -0.263182 0.000149604 6.61232e-05          -1
0.114056 0.177991 0.107535  -0.730199 0.00695547  -0.683199
 0.0229715 -0.0187139   0.498606 -2.67488e-05  4.50214e-05            1
 0.261572 -0.131804  0.213355            1   5.1834e-05 -0.000104172
-0.0373607   -0.18064   0.316784    -0.266816    -0.963748 -0.000109513
0.212476 0.258388 0.263797 6.03633e-05 2.53931e-05           1
0.00779743  0.0690225   0.498583 5.36907e-05 9.01745e-06           1
 0.181311 0.0283382  0.397092    0.983073    0.183212 0.000373287
 -0.18302 0.0150263 -0.406642    -0.994413      0.10556 -0.000190733
-0.261644 0.0958759 -0.172777           -1  1.97055e-05 -5.26176e-06
-0.0978444  -0.135058    0.49856 -7.0342e-05 0.000114293           1
-0.148888  0.106889 -0.389494   -0.833412    0.552652 -0.00010049
0.0640284 -0.261815 -0.259483  1.15542e-05           -1 -4.59684e-05
-0.0137902   0.209361  -0.263248 -3.21678e-05  0.000169771           -1
0.0758852  0.205127 -0.139498 -0.375458 0.0024092  0.926836
-0.15572 0.243357 0.264049 3.06122e-05  3.1134e-05           1
 0.261566 -0.160783 0.0183865            1  8.12399e-05 -1.55353e-05
 0.221265 -0.261745  0.127056  0.000120583           -1 -5.68847e-06
-0.130489  0.261665 -0.218165 -2.98177e-05            1 -3.81288e-05
-0.106867 -0.261619  -0.16517 5.94203e-05          -1 -8.5088e-05
 0.252271 -0.191693  -0.26346 9.73691e-06 4.85844e-05          -1
 0.155498  0.138367 -0.263516 9.92905e-05 0.000107157          -1
-0.00375849    0.184298   -0.322212     0.112426      0.99366 -2.68894e-05
 -0.139876   0.247411 -0.0787161   0.813151 0.00185827    0.58205
-0.0989025  -0.230056  -0.263465 -7.1138e-06 4.69208e-05          -1
  0.137531   0.192764 -0.0785917  -0.891901 0.00276561   0.452223
 -0.155883 -0.0516452   0.148233 -0.000783969     0.413466    -0.910519
-0.00211199   0.0388095    0.155857 -0.0850324 0.00759636  -0.996349
 -0.26158  0.179298 -0.163774           -1  1.27202e-05 -1.96131e-05
0.261736 0.129159 0.147039           1 6.77534e-05 5.79982e-05
-0.261424 -0.150395 -0.134568           -1  6.37296e-05 -2.29722e-05
-0.0176307  -0.126762  -0.156244   0.0643137 0.000653061     0.99793
-0.0696947  -0.170495  -0.498432 -0.000117177  5.74306e-05           -1
 -0.182488   0.261784 -0.0260905  9.81651e-05            1 -3.46795e-05
  0.261868   0.254399 -0.0835516            1  7.43927e-05 -3.93968e-05
   0.18642 -0.0623564  -0.263068 0.000176997 7.17078e-05          -1
-0.261468  0.230593 0.0753406           -1  2.60698e-05 -5.05485e-06
  0.151455 -0.0205642   0.498608 0.000104613 2.25375e-05           1
 0.061909  0.168772 -0.498404 3.8451e-05 5.5573e-05         -1
-0.182863 -0.022738 -0.298814   -0.983547   -0.180643 -0.00170766
-0.0889823  -0.261613  -0.154481 -6.21465e-07           -1 -4.59439e-05
-0.0276952   0.215026    0.26338 -1.55456e-05  0.000191474            1
-0.261618  0.179713  -0.25506           -1  5.94943e-05 -7.76735e-05
 0.147988  -0.10739 -0.435882     0.81048   -0.585766 0.000405979
-0.260031  0.218422 -0.263788 4.66683e-05 5.35753e-05          -1
  0.167428 -0.0759347   0.461102    0.924748   -0.380579 -0.00133495
0.250827 0.261746 0.115012  0.000126493            1 -6.54848e-06
  0.164112 -0.0175809  -0.155627 0.000222073   0.0443615    0.999016
   0.17321 -0.0723455  -0.263104 0.000170306 7.66582e-05          -1
 0.115064  0.193479 -0.108889  -0.736056 0.00233655   0.676916
-0.153095  0.100889 -0.476135  -0.820594   0.571511 0.00090707
 -0.158509  -0.189363 -0.0255209   0.977531 0.00185936   0.210784
 -0.199837 -0.0220823  -0.263278 -5.84315e-05  7.29231e-05           -1
-0.0294732   0.261585  -0.224505 -2.94622e-05            1 -8.46983e-05
0.0441583  0.113977  0.150408  -0.382722 0.00538985  -0.923848
  0.24533 -0.189379  0.263865 2.94872e-05  5.5592e-05           1
  0.261621 -0.0613949   0.256592            1  1.51019e-05 -7.88765e-05
-0.098309 -0.155236 -0.384602   -0.514206   -0.857667 0.000129148
  0.261597  -0.219506 -0.0290271            1  9.76977e-05 -4.12156e-06
 -0.253118   -0.26153 0.00674402 -8.78694e-05           -1  1.99546e-06
-0.191516 -0.261497  0.166583 -2.69074e-05           -1  6.17952e-05
-0.120335 0.0235323 -0.154237 -0.000869784    -0.193823     0.981036
 -0.261538   0.233589 0.00633551          -1 2.76828e-05 3.38186e-05
-0.0477188 -0.0120017    -0.4983 -3.79689e-05  3.89023e-05           -1
-0.0417919  -0.207013  -0.151568   0.293267 0.00284156   0.956026
-0.145472  0.232837 -0.263758 -2.37358e-05  8.35998e-05           -1
 0.261523 -0.155319 -0.148703            1  4.52274e-05 -3.39194e-05
 -0.148453  -0.159775 -0.0564412   0.930514 0.00305874   0.366243
 -0.153116   0.237205 -0.0434976   0.993465 0.00380592   0.114072
  0.225487   -0.14871 -0.0553384 0.00124427   0.917911   0.396785
-0.196201  0.261441  0.261797 4.23021e-05           1 9.61714e-06
-0.158833  -0.26157 -0.157668 -6.60285e-05           -1 -8.94555e-05
 0.242252 -0.261839  0.261477 -1.72023e-05           -1   4.0496e-05
  0.261599 -0.0707025   0.162123           1 3.15398e-05 1.16165e-05
  0.261574 -0.0899775  -0.182389           1 2.14363e-05 1.13778e-05
 0.131701  0.151411 0.0892658   -0.71496 0.00725378  -0.699128
-0.047785 -0.177866  0.397224   -0.302594    -0.95312 0.000251665
-0.261317  0.209235  0.199387          -1 5.50981e-05 1.89019e-05
 -0.163994   0.261832 -0.0868168 5.94447e-05           1 1.95416e-05
  -0.184333 -0.00576409    0.330447   -0.999804    0.019786 0.000745441
-0.0918972   0.261645  -0.201713 -8.75812e-06            1 -5.50678e-05
  0.261589  -0.243148 -0.0555743            1  8.41647e-05 -8.36347e-08
-0.140242 -0.261619 -0.191871  -2.7511e-05           -1 -6.64561e-05
 -0.144379 -0.0947749   0.124747 -0.00189929    0.598442   -0.801164
-0.182071 0.0192204 -0.297353   -0.986783    0.162007 -0.00360326
 0.137643  0.261572 -0.155831  2.62889e-05            1 -3.03296e-05
 0.181551 0.0320166 -0.448798    0.979735    0.200288 -0.00195644
 0.212742  -0.26154 -0.222121 1.92834e-06          -1  1.4462e-05
-0.0499147  -0.177357  -0.447559   -0.244482   -0.969654 0.000735651
0.0646366  -0.17223 -0.388549     0.304465    -0.952524 -0.000133481
-0.235419   0.14025 0.0732506 0.000703115   -0.904849   -0.425732
0.0417208 -0.261641  0.210389  3.1461e-05          -1 5.99141e-05
-0.261817 0.0569243 -0.237805           -1  6.97601e-06 -2.17658e-05
 0.166899  0.252921 -0.263584 -2.60387e-05   6.1653e-05           -1
-0.0526292   0.117294     0.1484   0.302742 0.00215941   -0.95307
-0.0934961   0.245288    0.12656    0.62704 0.00319775  -0.778981
  0.152922  -0.261791 -0.0371704 7.35777e-05          -1 1.09582e-05
0.00929236  0.0571225   0.498581 4.02695e-05 1.23578e-05           1
-0.0150869   0.252885   0.263317 -2.79265e-05  0.000127157            1
  0.102138 -0.0665641  -0.498298 7.65723e-05 5.11481e-05          -1
-0.119387 0.0205744 -0.498271 -7.37228e-05  1.94182e-05           -1
-0.152178  0.102662 -0.466689   -0.807289    0.590157 0.000532676
-0.183344 0.0170615 -0.467156  -0.999634  0.0269316 0.00257503
-0.0440512   0.199476   0.152291   0.289747 0.00471141  -0.957092
-0.131515  0.158513   0.08713   0.759386 0.00565114  -0.650616
-0.150065  0.197312 0.0539129    0.97874 0.00149163  -0.205098
  0.139166  -0.199763 -0.0743189  -0.827497 0.00640251   0.561434
  0.235122  -0.261875 -0.0534834 0.000131428          -1 7.22411e-06
-0.224201 0.0133385 -0.157201 -0.00453921   -0.203384    0.979088
-0.156698  0.261553 0.0349873  4.2176e-05           1 2.65982e-05
0.177048  0.26173 0.146768 4.15952e-05           1 8.53143e-06
-0.261789 0.0393008 -0.221537           -1  7.06065e-06 -1.42408e-05
0.261489 -0.12452 0.113549           1 0.000102547  0.00011366
  0.19351 0.0402051  0.263347 0.000180322 4.79144e-05           1
-0.0494292   0.176866    -0.3042  -0.212124   0.977243 5.2733e-05
-0.0989285   0.154582   0.315587    -0.48729     0.87324 0.000452325
-0.00531223    0.182797    0.285075   -0.038483    0.999257 -0.00218081
-0.238667 -0.257029  0.264435 -6.01998e-06  6.27133e-05            1
0.0142709  0.182757  -0.38135    0.139086     0.99028 0.000672472
-0.0857608  0.0349371  -0.151811 -0.000131205    -0.231946     0.972729
   0.229193 -0.00932382   -0.156621 -0.00273476   0.0113657    0.999932
  0.261587 -0.0683709   0.146861           1 3.24962e-05 4.16159e-05
-0.23704 0.140031 0.263922 2.48537e-06 5.62909e-05           1
-0.0810817  -0.164885   0.304398   -0.432661   -0.901557 1.94769e-05
0.0285057 0.0511844 -0.498344 1.82382e-05 1.68223e-05          -1
-0.158589  0.102571 -0.263841 -0.000131989  0.000116625           -1
0.0718021  0.129691 -0.498379 4.10484e-05  3.4408e-05          -1
-0.221228  0.245056 -0.263812 1.75243e-05 3.72188e-05          -1
  0.154186  -0.150978 -0.0522723 0.00411251     0.8589   0.512128
  0.183522 0.00261119   0.425781     0.999803    0.0198353 -0.000247311
0.0788198 -0.257351  -0.26335 9.52355e-05 0.000123901          -1
0.0759864 -0.167066 -0.441378     0.407555    -0.913181 -0.000350691
  0.251385 -0.0703156    0.26356 0.000144878 5.47326e-05           1
 0.134324 -0.181498 -0.263409 9.35426e-05 0.000167289          -1
-0.209434 -0.261499 0.0300793 -2.75379e-05           -1  3.31796e-05
 0.261859  0.210345 0.0764937           1 3.73982e-05 1.64946e-08
 0.143098  0.154986 0.0668693  -0.922325 0.00684192  -0.386355
 -0.114252 -0.0866209  -0.130776 0.00126573   0.456319   0.889815
-0.173248 0.0711361  0.263522 -0.000178595  0.000122525            1
 -0.135221  -0.134355 -0.0825754   0.846627 0.00404837   0.532171
0.0303316  0.138134 -0.154154  -0.168453 0.00148389   0.985708
0.0918656   0.15869 -0.307671       0.4613     0.887244 -0.000763666
-0.261545  0.217367 -0.216537           -1   5.7973e-05 -0.000130521
-0.261347 -0.229535  0.142993           -1 -5.61605e-06  -2.2748e-07
-0.261449  0.152144 0.0565207          -1 9.01309e-05 2.52526e-05
  0.18298 0.0230583 -0.309841    0.991687    0.128671 0.000224062
 0.121493 -0.140818  0.475275     0.784277    -0.620411 -0.000824256
 -0.16757 -0.261576 -0.234846 -3.13566e-05           -1  7.78186e-06
  0.163445 -0.0838008   0.476754     0.856703    -0.515809 -0.000988996
 0.174173 0.0564563  0.340886     0.977248     0.212101 -0.000509545
-0.0989161  -0.154778  -0.327574   -0.522495   -0.852643 0.000158599
  -0.26168 -0.0289639  -0.169611           -1  1.66325e-05 -2.84448e-05
 0.261861  0.202916 0.0107301           1 6.07022e-05 2.57752e-05
  0.233902  -0.261878 -0.0703512 0.000193433          -1 6.91678e-06
  0.11045  -0.26175 -0.188173  1.20608e-05           -1 -7.61503e-05
0.139264 -0.11894 0.419071     0.753851    -0.657046 -6.35151e-05
0.00554986  0.0299521  -0.498333 2.20176e-05  1.2779e-05          -1
-0.00173728    0.261824    0.235115 -2.02451e-06            1   2.7417e-05
  0.26161 -0.200562 0.0287113            1   7.3341e-05 -1.21731e-05
 -0.13026 0.0681401 -0.498313 -2.22529e-05  7.73912e-05           -1
 0.183736 0.0149583 -0.300575     0.997018    0.0771654 -0.000418293
-0.261575  0.230071 -0.143736           -1  3.72775e-05 -7.62859e-06
  0.21541 0.0230014  0.156752 -0.00210555   -0.219516   -0.975607
0.0630018  0.261844  0.200513 -1.74423e-05            1  3.82732e-05
-0.213326 -0.244866 -0.263925 7.37587e-06 4.26882e-05          -1
 0.261481  0.253293 -0.189587           1 1.67835e-05   1.144e-05
-0.261619  0.118538 -0.160794           -1  1.84575e-05 -1.29084e-05
-0.137119 0.0957961 -0.498341 -3.76008e-05  7.55054e-05           -1
0.0504563 -0.176744 -0.423758    0.311396    -0.95028 3.56523e-05
-0.160109  0.089313  0.350378    -0.837171     0.546942 -0.000421393
   0.218302   -0.261768 -0.00213099 0.000106632          -1 2.84699e-06
 0.214927  0.143451 0.0680797 0.000974868   -0.912392   -0.409317
-0.179898 -0.261437 0.0133129 -1.7371e-05          -1 2.44612e-05
-0.13126 0.128125 0.366905   -0.688082    0.725633 0.000133602
0.113955 0.180014 0.263591  8.1315e-05 0.000193577           1
0.261803   0.2056 0.121914            1  2.76222e-06 -1.13568e-06
-0.210669  0.239074 -0.263819 1.35589e-05 3.55608e-05          -1
-0.164856   0.26171 -0.181048 -1.55275e-05            1 -3.10889e-05
-0.0678344   0.181128  -0.263502 -9.11831e-05  0.000188575           -1
-0.0231081   0.145996   0.155361   0.0851929 0.000830195   -0.996364
 0.11089 0.145165 0.299789    0.631373    0.775479 5.82151e-05
0.0598551  0.169216 -0.498403 3.89443e-05 5.12406e-05          -1
-0.261606  0.261733 -0.205175  7.72095e-05            1 -4.24564e-06
 0.215828 -0.253043  0.263774 2.37296e-05 6.02221e-05           1
  0.221061 -0.0366448   0.263393 0.000168545 4.00172e-05           1
  0.26157 -0.200534 -0.162777            1  2.90055e-05 -4.07888e-05
 0.0279868 -0.0859287   0.498565 -3.26748e-06  2.69431e-05            1
0.0610306 -0.208009   0.14489  -0.396453 0.00297911   -0.91805
-0.0792368  0.0837022  -0.135544   0.370119 0.00456038   0.928973
 0.195896 -0.261617 -0.206085  7.26317e-05           -1 -7.04889e-05
-0.261458 -0.167923 -0.138078           -1   2.9779e-05 -3.00756e-05
 0.0467649 -0.0709232  -0.150772  -0.188376 0.00198556   0.982095
 0.0120506 -0.0795932  -0.156955   -0.15281 0.00092152   0.988255
0.261752 0.118951 0.190401            1  1.77924e-05 -5.16926e-06
0.0913129  0.261774  0.139248 -2.56405e-05            1  3.74043e-05
   0.231094 -0.00563058   -0.262985  0.00020111 6.23953e-05          -1
-0.180761 -0.039428  0.311219  -0.955038  -0.296482 0.00140887
 -0.173294 -0.0619193   0.465124    -0.958845    -0.283929 -0.000408422
-0.0576229  0.0745792   -0.14518   0.323051 0.00450198   0.946371
  0.159826 -0.0892764  -0.425636    0.833049   -0.553199 0.000212837
0.0470897 -0.241549  0.263427 6.91735e-05 8.56877e-05           1
-0.113888  0.261593  0.137906  5.07742e-05            1 -6.13402e-05
 0.0631893 -0.0861065   0.144536  -0.387136 0.00194472  -0.922021
-0.206626 -0.261439 -0.254529 -2.42931e-06           -1  1.54767e-05
  0.261635 -0.0820261   -0.23359           1  9.8549e-06 5.45151e-05
 -0.132277   0.261804 -0.0803174  3.51217e-05            1 -1.33176e-05
  0.185177   0.156911 -0.0321883 -0.00172681   -0.980312    0.197446
0.0382218  0.181444 -0.263235  6.7027e-05 0.000147466          -1
 0.11463 0.143469 -0.37006     0.61426    0.789104 0.000126883
-0.171718 -0.261444 0.0240561 -7.05727e-06           -1  2.53551e-05
0.139003 0.261756 0.156289  5.8047e-06           1 6.14739e-05
   0.1665 0.0768644  0.457234   0.913024   0.407904 0.00115783
-0.0241191   0.181931   0.437388    -0.203978     0.978975 -0.000167781
 -0.166551 0.00788899  -0.498274 -2.11977e-05  3.32632e-05           -1
-0.0187919  -0.028233   0.155486  0.0357926 0.00977586  -0.999311
 0.243846 -0.214438  -0.26345 -3.73111e-07  5.16932e-05           -1
-0.150981  0.103893  0.338638     -0.83322     0.552942 -0.000428789
 0.220814 -0.108465  0.115479 6.17634e-05    0.619983   -0.784615
-0.209432  0.261771 -0.164862  9.47307e-06            1 -1.70609e-05
    0.2616 -0.0614553  -0.201016           1 3.25624e-06 3.05482e-05
-0.261326 -0.175919  0.136412           -1  1.36787e-05 -1.21496e-05
-0.245348 -0.073665  0.263584 -5.43187e-05  3.84691e-05            1
-0.250533 -0.117879  0.263773 -1.07733e-05  6.15118e-05            1
-0.160526 0.0900666   0.46228   -0.859395    0.511311 -0.00129363
-0.114753  0.195249 -0.263646 -0.000113363  0.000199629           -1
  0.261628 -0.0251177  -0.251091           1 4.17202e-06 7.99768e-05
-0.0321575   0.115215   0.154488   0.280991 0.00231608  -0.959707
0.00534253  -0.183662   0.407908     0.104177    -0.994558 -0.000838125
0.118847 0.095157 0.498477 1.95131e-05 9.25162e-05           1
-0.01886 0.105048 0.498575 -1.6756e-06 4.58316e-05           1
0.117988 0.139526 0.377034    0.630585     0.77612 0.000307586
 -0.13117 -0.129673 -0.280245   -0.662786   -0.748808 -0.00110186
-0.261566  0.195154  -0.17161          -1 1.56739e-05 -2.8671e-05
-0.261467  0.234697 0.0832841           -1  2.61833e-05 -3.15769e-06
  0.200254 -0.0530406  -0.263046 0.000179538  7.1588e-05          -1
-0.261137 -0.239244 -0.252787           -1  3.55188e-05 -6.41349e-06
 0.170095 -0.261833  0.242532 2.87203e-05          -1 4.81564e-05
 -0.174741 -0.0566182  -0.351882   -0.958156   -0.286245 0.000346525
-0.0981593  -0.016187  -0.155023 -0.00107023    0.178529    0.983934
 -0.195053   0.261857 -0.0663776  3.64325e-05            1 -4.93783e-05
   0.18996    -0.1317 -0.0867602 0.000976987    0.835293    0.549804
-0.0882814  -0.161406  -0.374195  -0.530939   -0.84741 6.6579e-05
 -0.26131 0.0675516  0.148682           -1  3.20734e-05 -9.44916e-06
0.0647484  0.129258   0.49857 9.33195e-05 1.52199e-05           1
-0.150555 -0.195204  -0.26372 -1.57752e-05  0.000110178           -1
 0.147036 -0.110022  0.348471    0.79555  -0.605888 0.00049812
 0.206486  0.158226 0.0131569 0.000109311   -0.999252  -0.0386716
  0.18284 0.0152616  0.455185  0.996382 0.0849071 0.0037053
0.0417314 0.0166061 -0.498339 -1.70445e-06  3.28534e-05           -1
0.112162 0.144207   0.3459    0.652441     0.75784 3.34683e-05
-0.0611985  -0.261634   0.226208 -1.81501e-05           -1  7.11048e-05
0.0513143 0.0508667  -0.15036 -0.00819474   -0.182717    0.983131
  0.103408 -0.0818218  -0.498304 7.40177e-05 7.38737e-05          -1
 -0.256435 -0.0812542   0.263575 -3.6404e-05 3.13811e-05           1
 0.041599  0.178594 -0.424791   0.297754   0.954642 0.00081699
0.209825 0.202067 -0.26356 1.00691e-05 6.29649e-05          -1
 0.261497 -0.152484  0.170953           1 1.97994e-05 4.79807e-05
  0.182671 -0.0236238   0.460914 0.980427 -0.19685 0.003633
  0.178448 -0.0287534  -0.498359 3.97964e-05 3.67267e-06          -1
-0.261466 -0.172422 -0.105121           -1  4.39915e-05 -3.71245e-05
 -0.261557  -0.198918 -0.0228609           -1  6.68704e-05 -8.56016e-06
 0.261835  0.150029 0.0516214            1  0.000102097 -3.07539e-05
  0.194418 -0.0615461   0.144854 -0.00300192    0.402207   -0.915544
0.0137208  0.183331 -0.427036   0.130467    0.99145 0.00207973
-0.154669 0.0992281  0.399698   -0.842401    0.538852 0.000110202
-0.180388 -0.034457 -0.413761   -0.980143    -0.19829 0.000373633
-0.200307  0.261574  0.107901    -1.02e-05            1 -3.01097e-05
-0.130146  0.129208  0.373397   -0.693876    0.720095 5.97987e-05
-0.26146 -0.18674   -0.154           -1  1.76095e-05 -2.05783e-05
 0.261852  0.172343 0.0155348           1 4.86576e-05 8.01017e-06
-0.162021  0.261548  0.187903 -4.5756e-05           1 5.18573e-05
-0.0776726  -0.207116  -0.137895   0.489446 0.00361584   0.872026
 0.158466 0.0930528   -0.3203    0.873294    0.487193 0.000175089
 0.135137 -0.075443 -0.498345 6.63833e-05  3.9202e-05          -1
0.109889  -0.2328 0.113416  -0.749788 0.00249324  -0.661674
0.0106461  0.130658 -0.157437 0.0464228 0.0014107  0.998921
0.261407 0.224102 -0.23946           1 5.11826e-06 3.27438e-06
-0.145674 -0.113866 -0.460348   -0.827353   -0.561683 0.000577081
 -0.175238 -0.0663949   0.141763 0.0011037  0.423466 -0.905911
-0.261459  0.181232 0.0496052          -1 0.000124441 3.14604e-05
-0.151606 -0.155663 -0.042513 0.00429234   0.904349   0.426772
 -0.094332 -0.0190786   0.498548 -7.64087e-05  4.10979e-05            1
  0.133555 -0.0511678     0.4986 8.04974e-05 3.85441e-05           1
 -0.179758 -0.0428885   0.298064    -0.960372     -0.27872 -0.000112871
  0.187651     0.1328 -0.0852922 0.00474196  -0.844281    0.53588
 0.164466  0.261668 0.0200621 -8.47012e-06            1 -2.01863e-05
-0.0220519  0.0548056   0.498588 1.19925e-05 1.33547e-05           1
 -0.155636   0.221573 -0.0249654  0.980044 0.0042906  0.198735
0.0831205 -0.163602  -0.49841 3.11398e-05  8.6006e-05          -1
-0.261615    0.2361 -0.112695           -1  9.96764e-06 -2.04778e-05
 0.139971  0.221888 0.0729162  -0.876907 0.00364887  -0.480646
-0.157752  0.261552 0.0374925 4.42951e-05           1 1.84021e-05
-0.0437919  -0.261577   0.174028 -2.6972e-05          -1 8.02309e-05
-0.129944 -0.261545  0.188956 -3.24712e-05           -1  6.73568e-05
0.0158516  0.123655 -0.498387 4.50031e-05 2.71313e-05          -1
0.173083 0.238494 0.263681 -1.88647e-05  6.04221e-05            1
   0.17173 -0.0652798  -0.358787     0.935093    -0.354402 -0.000566426
0.0954673 -0.261731  0.212655 1.99175e-05          -1 6.60792e-05
-0.0732511   0.257703  -0.263364 -7.35595e-05  0.000137863           -1
-0.0691921 -0.0160804  -0.154843 -0.00205631   0.0455296    0.998961
-0.0942628  -0.157786  -0.477592    -0.574988    -0.818162 -2.48285e-05
-0.150234 0.0764305  0.137922 0.00161515  -0.439413  -0.898284
0.0218904  0.261606 -0.168032  1.40511e-05            1 -5.98507e-05
   0.18048   0.137098 -0.0783806 0.00404371  -0.848652   0.528936
-0.0769906   0.149182  -0.137613  0.496884 0.0116979  0.867738
-0.224089 -0.261502 -0.153511 -1.56243e-05           -1 -2.48716e-05
-0.261829 0.0582451 -0.257973           -1  7.31655e-06 -7.11895e-06
  0.181655 -0.0279964   0.408631     0.976631     -0.21492 -0.000489895
0.0454657  0.194821  0.263318 6.38586e-05 0.000103519           1
 0.143222 -0.198064  0.067413  -0.904916 0.00169959  -0.425586
0.0830006 -0.211568  0.263549  5.5579e-05 0.000121559           1
-0.0555162  -0.194156    0.14677   0.293566 0.00569121  -0.955922
0.0126249 -0.130834  0.498555 -6.49697e-06  0.000121113            1
-0.153463  0.112715  0.263797 -0.000178207   0.00020186            1
-0.191449  0.261792 -0.027375  3.40054e-05            1 -2.09485e-05
-0.11537 0.261596 0.131409  6.10501e-05            1 -7.67104e-05
-0.0141951   0.183041  -0.446149   -0.0903147     0.995913 -0.000328172
 0.261577  -0.10479 -0.197397           1 1.88843e-05  4.7418e-05
 -0.261761 -0.0189608  -0.225895           -1  2.17119e-07 -9.53089e-06
-0.0772517  -0.217654    0.13639   0.459475 0.00283224  -0.888186
 0.208616  0.261555 -0.126307  0.000107073            1 -2.65243e-05
-0.0881768  -0.261638   0.253634 -1.70654e-05           -1  6.01863e-05
 -0.148237  -0.153489 -0.0570309   0.926223 0.00324556   0.376961
-0.249447 -0.261461 -0.165929  4.59129e-05           -1 -5.64108e-05
-0.234476 -0.261582  0.122009 -0.000103631           -1  1.63301e-05
 0.110723  0.146865 -0.312043     0.561003     0.827813 -0.000633856
  -0.26151  -0.174313 -0.0439076           -1  6.93555e-05 -1.45016e-05
 0.239291  0.090421 -0.263238 0.000155696   6.225e-05          -1
-0.0233023   0.146307   0.498608 -1.59171e-05   0.00028067            1
 0.140002 -0.220149  0.073403  -0.896297 0.00332791  -0.443441
  0.261569  -0.190834 -0.0843788           1 4.29539e-05 1.75518e-05
 -0.183233 -0.0183525  -0.354554    -0.987001    -0.160711 -0.000464223
-0.232802 0.0335172  0.154382 -0.00241453   -0.217954   -0.975956
 -0.233796 0.00812951   0.159816 -0.00303337   -0.202967   -0.979181
  0.260016 -0.0354794  -0.263024  0.00018568 6.46075e-05          -1
-0.178527 0.0409986 -0.393381    -0.986327     0.164799 -0.000129595
0.0227059 -0.181966  -0.29601    0.136992   -0.990572 -0.00015447
-0.0316907   0.181075  -0.280956   -0.202894    0.979201 0.000154518
 0.252867 0.0240609 -0.157756 -0.00402694   0.0198466    0.999795
  0.123419  -0.154567 -0.0983277 -0.825892 0.0072448  0.563782
 -0.26148  -0.14591 -0.167484           -1  2.15703e-05 -2.27739e-05
  -0.13383   0.180018 -0.0866685   0.834067 0.00438478   0.551645
  0.261565   -0.18377 -0.0913153           1 4.02668e-05 1.80289e-05
-0.0249373  0.0683505  -0.498303 8.40098e-07 1.54252e-05          -1
-0.261789 0.0912068 -0.237171           -1  1.24152e-05 -2.51569e-05
-0.00593988    0.186092   -0.263244 -3.42978e-05  0.000203062           -1
 0.144605 -0.221932 0.0644376   -0.90113 0.00329008  -0.433537
-0.0159836   0.043692    0.15542  0.0936152 0.00508987  -0.995595
0.00950089   0.183753  -0.414774     0.132013     0.991248 -0.000166204
 0.261471  0.223575 -0.205102           1 2.02032e-05  -8.094e-06
-0.184511 0.0504473 -0.148338 -0.000633952    -0.246522     0.969137
-0.164031 0.0829232 -0.373104   -0.927695    0.373338 5.65528e-05
0.0226242 -0.182427  0.366973   0.136859   -0.99059 0.00139745
 -0.163884   0.261652 0.00580342 2.41409e-06           1 1.68109e-05
-0.184415  0.133985 0.0844646 0.00314993  -0.889482  -0.456959
   0.158562    -0.17112 -0.00818699  -0.994007 0.00417773   0.109237
-0.201254 0.0663819  0.263504 -0.000145209  9.24199e-05            1
 -0.179936 -0.0362424  -0.348432    -0.981414    -0.191905 -0.000153142
 0.219886 -0.261752  0.010691 0.000103508          -1 2.67241e-06
 0.182856 0.0157181  0.481786   0.999527  0.0306044 0.00299165
-0.00281345   -0.183859    0.440621   -0.0593759    -0.998236 -6.28312e-06
-0.203067  -0.10343  0.118623 -0.00062059     0.58808   -0.808803
 -0.113071 -0.0589202   0.145104 0.000563055    0.433893   -0.900964
-0.123996 -0.261642 -0.189143 -2.84316e-06           -1 -7.04386e-05
  0.19095  0.261721 0.0572639  4.78349e-05            1 -3.28599e-05
-0.0014554   0.261821   0.193179 -2.86791e-05            1  9.76925e-05
 0.0382763 -0.0964683  -0.498291 3.90052e-05 4.44413e-05          -1
0.167335 -0.26168  -0.2044  5.92853e-05           -1 -7.98996e-05
 0.116524 0.0554175  0.146538 0.00199203  -0.425367  -0.905019
-0.0730775  -0.160919   0.498574 -3.50828e-05  0.000113121            1
-0.238651  -0.10933 -0.116139 -0.00213136     0.60294    0.797784
 0.128073  0.071766 -0.138594 0.000607859   -0.455613    0.890178
-0.0380747 -0.0115253   0.155431 0.00882344  0.0107153  -0.999904
-0.00231534   -0.184007   -0.447232  -0.0301226   -0.999545 -0.00137258
 0.26181  0.04795 0.229074            1  1.68883e-05 -8.76562e-05
0.0241419  0.216763   0.26329 3.79302e-05 0.000132911           1
-0.104301 -0.151512  0.315974   -0.585669    -0.81055 0.000216314
  0.13489 -0.150842 -0.263449 0.000104169 0.000150848          -1
-0.0138552  -0.261675  -0.198047  0.000120328           -1 -0.000113687
 -0.179389 -0.0405977   -0.30364    -0.98209    -0.18841 -0.00113997
-0.0533052  -0.157027   0.148628   0.281159 0.00175914   -0.95966
-0.0964526  -0.132162   0.124564   0.648777 0.00468746  -0.760964
