 0.171935 0.0662275 -0.263461
   0.18322 -0.0213845    0.26336
 -0.263079  -0.262978 -0.0485412
0.0640453  -0.26301 -0.263222
0.0808874 -0.262866  0.135854
  -0.263048   -0.263034 -0.00246672
  0.263051   0.262799 -0.0670654
-0.263064 -0.262982 0.0196992
 0.262685 0.0593677  0.146404
-0.115057 -0.262645 -0.108473
 0.164223 0.0870107 -0.263555
 0.184684 -0.012277   -0.2636
0.108554  0.26222 0.114844
0.239439 0.262873 0.263119
 0.109164 -0.107734  0.114294
  0.263013   0.262911 -0.0948069
 0.263035 -0.013122   0.15838
 -0.262846 -0.0423818  -0.263124
 -0.13023 -0.128397 0.0930051
0.0129937 -0.263052  0.263211
0.0724214  0.262276   0.14049
 -0.263091 -0.0735057  -0.263204
-0.263142 -0.262847  0.113776
-0.234047  0.262803  -0.26293
-0.0227209   0.263134   -0.26308
-0.262994  0.263079 0.0752514
-0.263138 -0.262754  0.184102
-0.26314 -0.26275 0.201637
 -0.262824     0.1385 -0.0786706
0.0237343  0.263076  0.263209
-0.262954  0.104852 -0.119057
0.127121 0.133437 0.264016
 0.262611 -0.263126 -0.227243
-0.158903  0.263123  -0.26305
    0.2631 -0.0119365   0.263143
 -0.183497 -0.0218337  -0.263415
 0.262859  0.263028 -0.191684
0.262818 0.262973 0.224832
-0.262589 -0.152666 0.0447148
 -0.262851   0.157645 0.00210688
0.0286327 -0.181915 -0.263779
 0.262428  0.153674 0.0355223
-0.235352    0.2628 -0.262929
  0.157244   -0.26273 -0.0202995
-0.184143 0.0155275 -0.263478
-0.0787035   0.166448   0.499245
0.055611 0.175568 0.263925
-0.0185132   0.263062   0.263185
 0.262164 -0.148404 0.0544032
-0.00335782   -0.263103   -0.263342
  0.263122 0.00545581   0.263127
  0.263098 -0.0503728  -0.263163
0.0325275 -0.262975  0.263194
0.0719857  0.263084 -0.263205
-0.262762 0.0917641  0.129168
0.0992273 -0.156074  0.263821
-0.263107 -0.262851 -0.201245
 0.262407  0.150739 0.0478287
0.00454629  -0.184595    -0.4996
-0.263094 -0.149445  -0.26304
 0.113474  -0.14592 -0.499552
0.133087  0.12752 -0.26338
-0.133985  0.128253 -0.499128
-0.263127 -0.145777  -0.26304
0.0960128 -0.157524 -0.263637
 0.262995 -0.263012 -0.114034
-0.114011 -0.263089 -0.263159
 -0.26312  0.262742 -0.232535
 0.263119 0.0861953 -0.263188
-0.149462 -0.107279  0.263542
-0.121255 -0.138393  -0.49968
 0.109246 -0.262419 -0.116735
 -0.26303  0.164898 -0.263114
   0.15457  -0.156787 -0.0327011
-0.179226 0.0448502 -0.263567
-0.0802665  -0.166514  -0.263719
   0.157769    0.262653 0.000630223
 -0.263057 -0.0624657  -0.263182
-0.182687  0.262799  0.263048
0.0857858 -0.163208  0.499582
  0.263074 -0.0752118   0.263049
0.0714827  0.170769  0.263999
-0.126725  0.261936 -0.094131
0.118156 0.262236 0.105678
-0.101903 -0.263097 -0.263125
-0.0286121   0.182035   0.499265
0.263103 0.263033 0.129674
 -0.139022  -0.139413 -0.0755094
-0.263121  0.262493 -0.262929
 0.262675 0.0721566  0.140492
0.00710538   0.184936   0.499511
 0.262239 -0.148952  0.053506
 0.154542 -0.262832  0.263152
-0.162693 0.0876719  0.263518
-0.132442 -0.128301  0.499613
-0.149284  0.262489 0.0573738
 0.109222 -0.262452 -0.116926
-0.262989  0.187015  0.263104
 -0.13472 -0.133653 0.0850097
0.262728 0.262854 0.263115
 -0.263124   0.263089 -0.0538887
-0.262669 0.0570335  -0.14861
0.164928 0.082611 0.499252
  0.18365 0.0182249  0.499727
  0.262892 -0.0442152  -0.152327
0.0127573  0.262705  0.158358
-0.0838918  -0.262591  -0.134973
  0.13231 -0.128589 -0.499658
  0.26244  0.150036 0.0502058
 0.263125 -0.263091 -0.149125
-0.262282 -0.053564 -0.149183
-0.149815 -0.107922 -0.263573
 -0.157083   0.154248 -0.0374385
-0.157172  0.262446 0.0202239
-0.156581  0.154834 0.0322428
 0.263133 0.0281692 -0.263155
 -0.132299  -0.132666 -0.0865683
0.0872727  0.162369 -0.263557
  0.26237  0.101186 -0.121444
-0.0628872  -0.172909  -0.499519
  0.26255   0.22256 -0.263061
  0.183058 -0.0254716  -0.499802
0.262968 0.198721 0.263091
 0.263041  0.262949 -0.108421
   0.263119 0.000839275    0.263129
   0.1571  0.155621 0.0264473
-0.262822 0.0298371 -0.263223
   0.158439    0.158844 -0.00800546
-0.262826  0.151045 0.0515265
  0.263047 -0.0474287   0.151195
-0.0261836  -0.262548  -0.156357
-0.104643  0.152674  0.499192
-0.0567265   0.263008   0.263146
 0.139508  0.120351 -0.263366
-0.0999437   0.156577   0.263426
-0.262992 0.0508864  0.263189
-0.130096  0.263052 -0.263103
 0.263065 0.0650983  0.263194
  0.263046  -0.262956 -0.0668945
-0.0605391   0.174285   0.263381
-0.151883  0.263063  0.263045
 0.262434  0.132726 0.0865495
   -0.263  0.128786 -0.263149
0.0316105 -0.262456  0.155921
-0.262621 0.0427964 -0.152053
  0.263087  -0.262954 -0.0449217
-0.0959395  -0.157602   0.499301
 -0.12425 -0.121109 -0.101238
 0.168892 -0.263062 -0.263041
-0.0707453  -0.262771   0.140588
-0.0121834  -0.262331   0.158464
 0.111825 -0.263019  -0.26311
 -0.162274 -0.0870876   -0.26355
 0.263116 -0.180387  0.262949
0.262889 0.207202 0.263093
 0.263113 0.0361742  0.263167
  -0.15734  -0.262628 -0.0260373
-0.0601386  -0.262548  -0.149096
-0.262973 0.0808509  0.263083
0.0651544  0.262893 -0.143613
0.0766604 -0.168149  0.499579
0.207183 -0.26288 0.263079
 0.263116 0.0719147 -0.263154
 0.090676 -0.160732 -0.263636
 0.104037 -0.153354  0.263857
 0.144502 -0.262816  0.263163
   -0.159142    -0.157876 -0.000569863
-0.114788 -0.143489  0.499485
 0.134955 -0.262551 -0.082526
 0.176445 0.0551232   0.26384
0.00512974   -0.18494  -0.263875
 -0.263083  -0.262969 -0.0499539
  0.12381 -0.124025 0.0984996
0.0454838  0.263107  0.263215
-0.263091 -0.262737 -0.120795
-0.0271373    0.26302  -0.155858
0.117601 0.262248 0.106462
-0.133912 -0.127675 -0.263596
  0.263093 -0.0392769   0.263091
0.0614575 -0.263013 -0.263256
  0.137057  -0.262727 -0.0795683
 -0.16198 0.0883994 -0.499724
 0.262994 -0.262898  0.092306
   -0.263  0.263063 0.0825847
 0.128137 -0.132555 -0.499606
0.0847753 -0.163834 -0.263612
0.263097 0.263048 0.131136
-0.262251 0.0137415 -0.158284
0.262792 0.235178 0.263102
 0.175326 -0.057769 -0.499796
 -0.262831   0.157728 0.00509548
0.0731659 -0.169731  0.263718
-0.116887 -0.263102 -0.263128
0.110461 0.148347 0.264141
 -0.262428 -0.0886965  -0.132328
-0.0552018   0.262822   0.148751
-0.055577 -0.175829 -0.263755
-0.0485332   0.178022  -0.263354
   0.13014   0.128126 -0.0934816
-0.156107 0.0976295  0.499344
-0.0674409   0.172301   0.499258
  0.158504   0.159008 -0.0046568
-0.122948  0.137764  0.263414
-0.0574201    0.26285    0.14801
-0.156608 0.0976534 -0.263632
 -0.26276 0.0884004 -0.130548
-0.023283 -0.262521  -0.15701
-0.00917506   -0.262321    0.158647
 -0.145936   0.262112 -0.0649615
  0.263126 -0.0225081   -0.26325
 -0.262802 0.00847332  -0.263229
 -0.183925 -0.0316282   0.263412
 0.263055 -0.262922  0.119444
-0.262872  0.157166 0.0125413
-0.0208869  -0.184822   -0.26382
0.262813 0.220641 0.263097
0.263024 0.127476 0.263116
  0.155233   0.262636 -0.0310143
0.0401632  0.262626  0.153009
 0.123435  0.136619 -0.263386
 -0.263072  -0.263029 -0.0295279
-0.126324   -0.2631 -0.263098
-0.167686 0.0759612 -0.263775
-0.0997684  -0.262646   0.124863
 0.263117 -0.263092 -0.135906
 0.058077 -0.262637  0.146817
   0.15506   -0.15761 -0.0302949
 0.111367  0.263061 -0.263157
0.0498651 -0.262645 -0.152056
-0.263143 -0.262825  0.121518
0.263113  0.26301  0.10796
-0.108292 -0.148916 -0.499652
0.262815 -0.11759 0.106297
  0.262645   -0.15606 -0.0321033
-0.080247  0.262806 -0.136214
-0.124452 -0.263106  0.263134
  0.147904   -0.26278 -0.0572535
0.0499549  0.262882 -0.150013
0.0436142  0.179869  0.499555
 0.213635 -0.262877  0.263051
-0.0779244   0.167832  -0.499266
  0.179207 -0.0419069   0.499377
 0.139698   0.12048 -0.499576
-0.0274108  -0.182751   0.263445
0.0469842 -0.178661 -0.499575
-0.133754  0.135699 0.0840915
-0.0919156   0.262999   0.128897
0.121495 0.140043 0.263997
-0.165247  0.080873 -0.263758
-0.263095   -0.2628  -0.10379
-0.0173936   0.263141  -0.263004
-0.132199 -0.129262 -0.263585
 0.069371  0.170993 -0.499341
-0.262715 0.0703621 -0.142986
-0.0823631  -0.263092   0.263197
-0.121833  0.121062 -0.102431
-0.262743   0.22215  0.263109
  0.263011 -0.0974158  -0.263092
0.0108544 -0.184548 -0.263844
 0.263106 -0.131104  0.262909
-0.0201849   0.182779   0.499282
 -0.263072   0.263092 -0.0878923
-0.164575  0.262816  0.263041
-0.263093  -0.26287 -0.186258
  0.263087   0.262782 -0.0459113
  0.157649    0.26264 -0.0178048
 0.150004  0.150325 -0.053565
-0.263097 -0.262852 -0.180322
 -0.159259  -0.157815 -0.0172136
 0.262884 0.0500137  0.150162
 0.262472  0.135153 0.0829612
-0.200131 -0.263017 -0.262905
-0.144294  0.116343 -0.263628
-0.116947  0.142292 -0.263487
 0.175353 0.0577661  0.263818
-0.263085 -0.262765 -0.125164
-0.123885 -0.262562 0.0978528
0.0500323  -0.17786 -0.263707
-0.0610734   0.262902   0.146328
0.176796 0.263108 0.263123
-0.263133 -0.120856 -0.263076
-0.173876 0.0637066  0.263461
-0.157026  0.154465 0.0339343
 -0.14022 -0.263098 -0.263127
-0.263046 -0.262922 0.0466513
0.262512 0.234893 -0.26309
-0.159056 -0.157414 -0.021686
 -0.122529   0.261951 -0.0994673
-0.263138  -0.26286 0.0949511
-0.184486   0.01218 -0.499942
 0.114715  0.263069 -0.263144
-0.0921627   -0.15946  -0.263653
  -0.26312   0.263092 -0.0481204
-0.175547 -0.058554  0.499455
-0.084897  0.262953  0.133229
 0.116701 -0.143745 -0.499539
 -0.157317   0.160903 -0.0127432
-0.158858 0.0935996 -0.499592
 0.263123 0.0198965  0.263107
0.0258083  0.182335  0.499564
 0.138124 -0.263061 0.0776817
0.105213 0.263132 0.263193
-0.019284  0.263051  0.263159
0.113086 0.263123 0.263223
-0.113668 -0.262624  0.109549
 -0.262296 -0.0116638   0.158805
0.0985029  0.156212  0.499243
0.0875386 -0.162026  -0.49954
-0.135229   0.26305  0.263036
-0.263118  0.262547 -0.262914
 0.157063 0.0989683  0.499113
 0.171356 0.0677543 -0.263496
-0.262696 0.0652978 -0.146415
 -0.262635  -0.150126 -0.0515802
-0.125726  0.263104 -0.263118
 0.262186 -0.146887 0.0578733
-0.237139 -0.262835 -0.262829
0.0749419  -0.16883   0.26374
 -0.148469  -0.262556 -0.0535176
-0.126059  0.134571 -0.263531
0.00696044   0.263082   0.263208
 -0.136795  -0.262605 -0.0810943
 0.108703  0.262839 -0.114182
 0.206147  0.263057 -0.263112
0.0936615  0.263124  0.263196
-0.093493  0.158886 -0.263427
 0.124466  0.124781 0.0987953
  0.13205  0.129592 0.0910073
-0.0750562  -0.167949  -0.499544
   0.262548 -0.00145125   -0.157929
-0.176789 -0.263079    -0.263
-0.158031 -0.262559 0.0123859
 0.263128 -0.146849  0.262913
-0.263087 -0.262809 -0.105621
  0.156159   0.157416 -0.0214593
-0.233023  0.262789 -0.262933
-0.125023 -0.137173  0.263618
-0.0537928  -0.176972   0.263514
 0.262371  0.101214 -0.121462
 -0.145884   0.262115 -0.0658625
 0.262721 -0.113992 -0.109075
  0.130077   0.128077 -0.0935812
0.124343 0.263134 0.263117
-0.182471 0.0292135  0.499297
 -0.262387 -0.0873633  -0.133076
 -0.158037  -0.157833 -0.0170471
-0.183706  0.263103    -0.263
0.0797408  0.262907 -0.137703
 -0.263041 0.00415248   0.263171
-0.262988  0.140441 -0.263152
0.00720951   0.262681   0.158839
-0.031405  0.181325  -0.26334
 0.100341 -0.154214  0.499608
0.0572667  0.175295 -0.263584
  0.129544   0.127644 -0.0943029
 0.263065 -0.262944  0.263066
 0.160693 0.0924207 -0.263548
-0.262244 -0.015699  0.157907
 -0.17904 -0.263068 -0.263023
 0.26304 0.263112 0.150571
 0.263031  0.263015 -0.164699
  0.262667  -0.126201 -0.0955859
-0.142267  -0.11809  0.263594
-0.100731  0.155996  0.263427
-0.262648 -0.130865 -0.090063
-0.0819771  -0.263083  -0.263115
-0.154281 -0.262463 0.0339631
-0.162133 0.0884534  0.263517
 -0.184092 -0.0102766   0.499342
  0.262765 -0.0965824  -0.125269
-0.262816 0.0699007  -0.26326
-0.157522  0.262489 0.0181961
-0.262818  0.148875 0.0576046
-0.14293 0.116127 0.263349
-0.00859903    0.184956   -0.263472
-0.171074 0.0705971  0.499288
 -0.124657   0.124462 -0.0982668
 -0.144868  -0.262587 -0.0626466
 -0.175654 -0.0582228   0.499451
-0.111539  0.263029  0.112292
-0.263114  0.262907 -0.221552
  0.136065  -0.262669 -0.0809211
 -0.168186 -0.0745158   0.499521
-0.157148  0.262455 0.0205423
-0.0542546  -0.176777   0.263591
-0.176207 0.0553129 -0.499914
-0.262716  0.234314  0.263086
-0.12423 0.136203 -0.26355
-0.262677 0.0638414 -0.146868
-0.0872412   0.263007   0.263109
 0.137411 -0.263082 0.0784458
 -0.262885   0.157376 0.00923371
 -0.263087  -0.262852 -0.0871994
0.0577168  0.175321  0.499547
-0.136668 -0.136818 0.0811693
0.195318    0.263 0.263119
-0.174806  0.059449  0.263439
0.122842 0.137593 0.264046
 -0.157115   0.153931 -0.0384349
 0.263123 -0.263125 -0.165268
-0.262848 0.0852369 -0.263115
0.0488389  0.178091 -0.499308
0.263099 0.263025  0.13175
 -0.168523 -0.0743458   0.499474
 -0.263077  -0.262992 -0.0407611
 0.138828 -0.263076 0.0761871
 0.175953  0.263084 -0.263137
 -0.26269 -0.145991  0.062314
-0.263103 -0.209168  0.263134
0.131813 0.130388 0.499079
 0.263101 -0.263121 -0.147808
-0.133838 -0.262455 0.0855904
  0.262635  -0.156865 -0.0242957
0.262553 0.262996 -0.23841
 -0.2629 0.155184 0.028713
-0.137759 -0.263095 -0.263133
  0.262673  -0.152248 -0.0454656
 0.183232 0.0210332  0.499731
 0.181686 0.0367333 -0.263541
-0.108336  0.263035  0.115537
 -0.165529 -0.0810313   0.263477
-0.157171 -0.156406 0.0289982
0.0151435   0.26313 -0.262978
 -0.162715 -0.0859062  -0.499807
0.0692873 -0.171207  0.499574
-0.022738 -0.262526 -0.157152
   0.185116 -0.00836135    0.263403
 -0.262809 -0.0311859  -0.263167
-0.110357 -0.262613 -0.113184
 -0.147112  -0.148951 -0.0563645
   0.263124 -0.00324076   -0.263203
-0.0512204  -0.262657   0.150231
 -0.26284     0.135 0.0838182
  0.15773 0.0978785  0.499141
0.0695003  0.262218  0.142327
0.157118 0.263131 0.263131
 0.262533 -0.263111 -0.245476
-0.157908 -0.095558 -0.263582
  0.262273   0.125404 -0.0956563
0.262825 0.263016  0.21064
0.137609 0.122986  0.49909
0.0720371  0.170492 -0.263593
 0.134899  0.263064 -0.263141
  -0.13432    0.26196 -0.0837019
-0.262456 -0.104021  0.120192
 0.109084  0.263074 -0.263143
  0.263023 -0.0394043   0.263131
 0.263089 -0.262985  0.167975
 0.149724 -0.107393 -0.263738
-0.169491  0.072305 -0.263748
-0.0938121   0.158716  -0.263421
-0.177668 0.0477269  0.499283
0.0785195 -0.263018 -0.263273
 0.158594 -0.262703 0.0125434
-0.0560668  -0.175767  -0.499489
 0.262688 0.0754518   0.13867
0.047929 0.177824 0.263752
 0.124586  0.124919 0.0986406
 0.157066  0.263079 -0.263135
  0.26285 -0.263085 -0.200271
-0.262675 0.0865515  0.133315
  0.263085 -0.0338932   0.263124
-0.0989732  -0.262702   0.126228
  0.176395 -0.0551173  -0.499787
 -0.23355 -0.262861 -0.262828
-0.262606 -0.152867 0.0443624
-0.0820271   0.164989   0.263412
0.0920028 -0.159641  0.499555
  0.183996 -0.0194852  -0.263598
0.0338388  0.262651  0.155195
-0.0394593  -0.263065  -0.263321
 0.262951 -0.167245 -0.263108
-0.0249115  -0.182124   0.499336
-0.031862 -0.182145 -0.263825
 0.262761 -0.263111 -0.215684
  0.183207 -0.0249352  -0.499803
-0.147016 -0.263098 -0.263121
 -0.262528  -0.157327 0.00974352
-0.262797 0.0248185 -0.263212
 0.120656 -0.262994   0.10181
 0.262909 -0.166827 -0.263138
 0.070836 -0.170494  0.499578
-0.0796087  -0.263094  -0.263179
0.0233501  0.263102  -0.26299
  0.26258  0.263008 -0.223725
 -0.262624  -0.157244 -0.0216868
 0.183218 0.0222284  0.499736
-0.0914978   0.262969   0.129135
 0.107925 -0.149815 -0.263674
-0.0607781    0.26289   0.146518
   0.157982    0.262658 -0.00260831
0.00563183  -0.184663   0.499744
-0.129691 -0.127994 0.0935741
 0.263056  0.173566 -0.263062
 0.157113 -0.262758 0.0258279
 0.176793 -0.053495   -0.4998
  0.263078  -0.262941 0.00376213
-0.115721  0.143179 -0.263468
-0.0998377   0.156543   0.263445
-0.141385 -0.263096  -0.26313
 0.167112 0.0780387  0.499203
-0.263049  0.263072 -0.161936
-0.262871  0.154047 0.0371053
-0.262632 -0.152572 0.0448909
 -0.262257 -0.0469289  -0.150989
-0.136565 -0.136295 0.0819856
 -0.262596  -0.157189 -0.0219656
-0.205305  0.262758  0.263043
0.0606782  -0.26298  0.263241
 0.175776 0.0561736 -0.263473
 0.141007 -0.263069 0.0717422
-0.180345  0.263088 -0.263011
 0.262264 0.0519087 -0.149181
 0.154703  0.262724 0.0351854
-0.116129 -0.262625  -0.10732
-0.263076  0.263126 -0.132518
 0.263124 0.0657854 -0.263178
 -0.149375   -0.26256 -0.0511326
  0.142402  -0.141152 -0.0705511
0.0678316 -0.262573 -0.143071
 -0.136966   0.262034 -0.0798848
-0.263137 -0.137796 -0.263047
 -0.263102   0.263079 0.00912044
0.0193512  0.263091 -0.263117
-0.0144427   0.184446  -0.263441
-0.262991 0.0393529  0.263188
  -0.184928 -0.00366211   -0.499926
 0.262952  0.263035 -0.175353
-0.00198129    0.263142   -0.262964
  0.148466   0.150101 -0.0566972
-0.263076 -0.262805 -0.153809
0.262968 0.263113 0.171907
  0.26309  0.262938 0.0275745
-0.26308 0.217164 -0.26295
-0.104636  0.151407 -0.263448
  -0.17585 -0.0553172  -0.499869
 -0.262753   0.148645 -0.0539732
-0.262588 -0.119972 -0.104214
  0.147903   0.148083 -0.0597853
-0.119161  0.140469 -0.263518
-0.0870411   0.263001   0.263125
-0.263087 -0.262829 -0.161217
 0.108218 -0.262963  0.116966
-0.07994  0.26298 0.263151
0.263047 0.263106 0.149806
 -0.141078   -0.26259 -0.0720849
-0.133588 -0.262467 0.0860507
 0.262395 -0.157996 0.0119352
   0.13488  -0.262629 -0.0825031
-0.262733 -0.119979  0.103762
  0.179617 -0.0400625   0.499399
 0.142254 -0.263073 0.0687814
 0.263122  0.134193 -0.263062
 -0.144931   0.144487 -0.0641882
-0.124318 -0.136648 -0.263583
  0.132023   0.130189 -0.0901549
  -0.26259  -0.125924 -0.0986422
-0.262534 -0.116738 -0.107235
 -0.262487 -0.0903695  -0.131174
-0.263087 -0.262841  -0.16566
 0.263021 0.0741368  0.263206
  -0.26254  -0.157925 -0.0164847
0.00308332   0.184913   0.499212
 0.263099 -0.262923  0.125241
   0.184043 -0.00542764    0.499618
-0.0943809   0.158367  -0.263448
-0.230958   0.26262  0.263115
-0.263125 -0.106486  0.263051
 -0.262255 -0.0219848    -0.1574
 0.263089  0.145653 -0.263071
 0.262427  0.150864 0.0473753
 -0.184676 0.00106824   -0.49993
-0.183651 0.0222595  0.263402
0.0438377  0.179549 -0.263601
-0.00293809    0.184214     0.26343
  0.123472  -0.262462 -0.0978231
-0.0973613  -0.262615  -0.124219
0.0275604 -0.182065 -0.263813
 0.108208 -0.262405 -0.117563
-0.112777   0.14681 -0.499088
-0.168919 -0.263104   0.26312
 0.263133 0.0075069 -0.263233
-0.0704446   0.263127  -0.263127
-0.102574  0.152871 -0.263442
  0.143904  -0.262783 -0.0671839
  0.26243  0.157478 0.0179103
-0.262945  0.263022  0.173781
  0.262701    -0.1238 -0.0989519
-0.061252  0.262889 -0.145986
 0.263035 -0.262956 -0.105542
0.207345 0.262942  0.26312
 -0.139926   0.140932 -0.0728502
 0.263072 -0.262961  0.242792
-0.169769 -0.263104  0.263145
 0.262754 0.0558673  0.147775
0.0645494 -0.172532  0.263665
 -0.262712   0.151204 -0.0463751
 0.262431  0.157405 0.0198672
-0.138437  0.123564 -0.263582
 0.263113 0.0661332 -0.263203
 0.107329 -0.262957  0.118091
 0.112274  0.146825 -0.499433
 0.263118 0.0770132 -0.263159
  0.263122 -0.0183951  -0.263276
-0.263112 -0.138937  0.263032
0.0173134 -0.185191  0.263502
    0.1522   0.262681 -0.0419437
0.0378248 -0.180496  0.263641
-0.140728  0.121009 -0.263589
-0.0875958  -0.263063  -0.263182
   -0.262287 -0.000434269    -0.157943
 0.263016 0.0987632   0.26316
  0.153438  -0.154651 -0.0386105
0.263034 0.135162 0.263105
0.0817561  0.165279  -0.26357
-0.042049 -0.179622   0.26342
 0.165462 0.0814818   0.49924
 0.263115 -0.263116  -0.14003
0.0185041  0.263116 -0.263022
-0.0748732  -0.263096  -0.263188
0.0894358 -0.160725  -0.49954
  0.124303   0.262778 -0.0986238
-0.121439 -0.262553  0.100584
-0.262972   0.10853 -0.115513
-0.133614  0.262541 0.0852842
0.0583896  0.175273 -0.499341
-0.0877999   -0.16213   0.263546
 0.184641 0.0105333  0.263458
-0.263092 -0.143606  0.263053
 0.262406  0.149057 0.0537777
-0.121555 -0.138152 -0.499686
-0.0605122  -0.173905  -0.499516
0.104913 0.263066 -0.26318
 -0.141352  -0.262597 -0.0714906
 0.151709  0.104724 -0.499605
-0.0263517   0.182239   0.499253
  0.26299 -0.127183  -0.26314
-0.190236  0.263077 -0.262996
-0.241852 -0.262812 -0.262824
-0.263121 -0.262756  0.163404
-0.262683 0.0649153 -0.146525
 0.262677 -0.263125 -0.216834
-0.262977  0.105478 -0.118409
-0.121834 -0.138419  -0.26358
 0.262435  0.157494 0.0174688
 0.262541 -0.130883  0.088396
 0.156281 -0.262837  0.263142
 0.263135  0.262983 0.0736025
-0.143158 -0.116772  0.263576
 0.147319 -0.110621 -0.263744
 -0.262952   0.138036 -0.0799184
 0.139978  0.119789 -0.263366
   0.262623 -0.00610318    -0.15786
  0.184881 0.00857422   0.263434
 -0.26311 -0.152907  0.263036
-0.157801 -0.157426 0.0218425
-0.0911717  -0.262611  -0.129139
0.0399105   0.26287 -0.153858
0.262986 -0.10026 0.123211
 0.262557 -0.262944 -0.263109
-0.000750061     0.262701     0.158295
  0.26311  0.262948 0.0461733
  0.262997 -0.0138348   0.158324
 0.158049 -0.262811 0.0232474
 0.153785 -0.263017 -0.263059
0.0664121  0.262211  0.144157
-0.263134 -0.122636  -0.26304
0.0498827   0.17787 -0.499333
  0.149348   0.149712 -0.0561309
 0.262672 -0.123602 0.0995696
 0.118972  0.140773 -0.263453
-0.103865 -0.262636 -0.118616
0.263035 0.143574 0.263108
 -0.18236 0.0302102  0.499303
0.0335063 -0.263033  -0.26327
-0.262808 0.0574438 -0.263249
0.0769049 -0.262975  0.263252
0.0458039 -0.263006 -0.263302
0.0520312 -0.262946  0.263142
 0.263084 -0.263007  0.186845
 0.105321  0.262853 -0.117415
 0.128087 -0.133085  0.263954
0.00536127  -0.263079  -0.263285
-0.0618863    0.17413  -0.499337
-0.118716  0.262968  0.263032
-0.173521 0.0638791   0.26347
-0.198234  0.263055 -0.262984
-0.0557581   0.262833   0.148576
 0.262857 -0.263124 -0.197245
-0.172222 -0.067471 -0.499866
  -0.1313  0.131197 -0.499106
  0.262642  -0.139769 -0.0750365
  0.183896 -0.0149958     0.4996
 -0.162894 -0.0862594   0.263468
-0.00588261    0.263061    0.263172
-0.0502796  -0.177939   0.263466
 0.183322 0.0216627  0.499735
 0.263118   0.12385 -0.263109
0.111699 0.147228 0.264148
 0.263014 -0.114965  -0.26312
 0.262264 0.0688383 -0.143563
 -0.145977  -0.262547 -0.0603131
0.235112  0.26288 0.263119
0.00162012  -0.184695   0.263471
-0.263142 -0.262748  0.170701
 0.262997 -0.262841 0.0333654
    0.263 -0.262997 0.0472411
-0.141481  0.118983   0.49927
 0.145763 -0.112365  0.499559
0.00359477  -0.184707    -0.4996
-0.184063 0.0193145   0.26338
0.0697041 -0.262981  0.263281
 0.115435 -0.115353  0.108035
-0.262958  0.263038  0.165426
0.00101483  -0.184411   0.499302
 0.263091 -0.262943  0.167456
0.0934268  0.159001 -0.263575
-0.262742  0.215813  0.263127
-0.263125  0.263081 -0.018201
 -0.09949 -0.262671  0.125765
-0.263107 -0.208679 -0.262725
 0.263018 0.0995525  0.263145
 -0.184921 0.00328492  -0.499932
-0.0601884  -0.263075   -0.26321
-0.166828 0.0779127 -0.263805
  0.149203   0.149014 -0.0568957
-0.040858  0.262941 -0.153379
-0.0190884   0.262739   0.156984
0.118169 0.142198 0.499054
-0.141211 -0.119497  0.263614
0.262792 0.262875 0.263103
-0.0722368   0.169784  -0.263401
-0.156371  0.263056  0.263049
0.262588 0.263004 -0.22324
  -0.12422   0.123723 -0.0989713
0.0134709  0.263069  0.263236
 0.262339  0.112669 -0.112053
0.0688264 -0.171069   -0.2636
-0.197839 -0.263045  0.263143
 0.140017  0.262463 0.0748018
  0.263072 -0.0702576  -0.263088
 0.225917  0.262998 -0.263125
0.0410505 -0.262606 -0.153155
  -0.262265 -0.00143246   -0.157919
 0.263073 -0.263027  0.218912
 0.137206 -0.139111 0.0766228
 0.180882 0.0410852 -0.263593
-0.262707  0.228555  0.263128
 -0.159015 -0.0929226   0.263529
0.0820925 -0.262839  0.134779
 0.177391 0.0511298  0.263775
-0.0989841  -0.262704   0.126218
-0.0239799   0.183344  -0.499549
-0.0957016  -0.262709   0.127684
-0.148395  0.146387 0.0604032
-0.263005  0.140171 -0.263115
-0.0743158  -0.169937  -0.263766
 -0.136444   0.262019 -0.0805853
-0.0550365  -0.176195  -0.499495
  0.26312  0.141112 -0.263068
-0.263049  0.196709 -0.262968
 0.262489 -0.263132  -0.26309
 0.262471 -0.263131 -0.263085
0.00723101     0.2627   0.158857
 -0.151005   0.262247 -0.0472983
-0.263143 -0.262793  0.128331
 0.262541 -0.127493 0.0943667
-0.119614 -0.120766  0.104202
-0.155834  0.262467 -0.025931
0.119998 0.120913 0.103285
-0.0941158  -0.158746   0.499325
-0.110166 -0.262611 -0.113369
  0.263096 -0.0352682   0.263102
  -0.0956  0.157504 -0.499209
-0.0231171   0.182511   0.499265
-0.159545  -0.15748  -0.02044
-0.262687  0.065216 -0.146013
 0.262403 -0.132676  0.086121
 0.263125 0.0755688 -0.263186
0.262985 0.263109 0.168529
 -0.263119    0.26307 -0.0220359
-0.263069 -0.262958 0.0394865
 -0.144094  -0.145364 -0.0639714
-0.141296 -0.119555  0.263598
 0.156886 -0.262833  0.263147
 0.107287    0.1512 -0.263479
 -0.262244 -0.0129023  -0.157823
 -0.143603  -0.144831 -0.0652406
0.263113 0.263012 0.108557
-0.262614 -0.152534 0.0451208
-0.0917456  -0.160212   0.499246
-0.0395751  -0.262545  -0.152627
 0.263025 -0.115171  0.262952
  0.26265   0.26302 -0.204803
-0.0433815   0.180605   0.263386
   0.26304 -0.0604375   0.146553
-0.105038  0.262136 -0.118793
-0.0765434   0.167616   0.499239
 0.174965 0.0600306 -0.499777
 -0.26304  0.179295 -0.263077
0.0455447 -0.178258  0.263647
  0.262649  -0.147837 -0.0575433
-0.0895362    0.16131  -0.263428
 0.152599   0.26275 0.0411972
 0.263118  0.114431 -0.263121
 0.263098  0.262939 0.0375032
-0.150455  0.105796  0.263316
-0.0282568   -0.26253  -0.155862
0.0302191   0.18174  0.499549
-0.121002   0.13927  0.263426
 0.263043  0.263037 -0.121404
 -0.158476  -0.157419 -0.0228849
   0.184469 -0.00863774   -0.263569
 -0.262954   0.139884 -0.0755085
-0.262565 -0.118378   -0.1056
 0.125986 -0.135133  0.499586
-0.263095 -0.262864 -0.199353
-0.154343 -0.101118 -0.263568
 0.263136 0.0201689 -0.263171
-0.262697 0.0657113 -0.146106
-0.133011  0.128347 -0.263548
-0.145642 -0.262453 0.0622272
-0.163768 0.0837213 -0.263737
 0.149958 -0.149859 0.0518182
-0.263038   0.26311 0.0318155
 0.145674 -0.113649 -0.499771
0.115298 0.144131 0.499074
 -0.262741   0.156939 -0.0273172
-0.262586 -0.119749 -0.104436
 0.104866 -0.262975  0.263144
 0.130113 -0.131842 0.0897452
 0.234438  -0.26313 -0.263085
-0.0510671   0.178524   0.499271
-0.262325 0.0161956 -0.158187
  0.26298 -0.263001  -0.11147
-0.0776839   0.166991   0.499246
  0.262892 -0.0447459  -0.152215
0.0885611 -0.161668  0.263768
 0.184585 0.0129566    0.2635
 0.062518 -0.173563 -0.263579
0.0290654 -0.262648 -0.154935
0.0553568 -0.262965 -0.263336
0.0975991  0.156421  0.264197
  0.263066  -0.262954 -0.0758513
-0.108293 -0.149042  0.263575
0.0398934  0.262864 -0.153839
-0.262606  0.262572   0.26312
  0.262896 -0.0452545  -0.152058
 0.263125 0.0939494 -0.263164
-0.223142 -0.262949   0.26314
-0.0417036   0.179163  -0.499491
-0.137225  0.124545 -0.499213
-0.178069 0.0461679  0.499301
0.153733 0.101856 0.263694
0.0959069  0.157894  0.499253
 0.158207  -0.26305 -0.263046
-0.0741869   0.169771  -0.499253
-0.0396087  -0.180817    0.49918
  0.263053   0.262803 -0.0801435
-0.262812 0.0504068 -0.263249
0.262855 0.263104 0.191915
 0.153133 -0.262819 0.0385852
 0.262473  0.134525 0.0838703
-0.0261769  -0.182083    0.49932
-0.263105 -0.149071   0.26304
 0.133028  0.130433 0.0896061
-0.0412042  -0.263077   0.263251
-0.0302352   0.262986  -0.155407
0.0667944 -0.262984    0.2633
-0.028779  0.182189  0.263391
 -0.150455   -0.26257 -0.0481903
  0.262804 -0.0755043   -0.13905
 -0.12325 -0.121761 -0.100575
 0.101339  0.263076 -0.263167
 0.217318  0.263029 -0.263127
-0.192917  0.262799  0.263039
 0.262253 0.0447793 -0.151125
-0.019153  0.263051  0.263154
-0.0916709   -0.16018   0.499296
  0.263048 -0.0493213   0.150583
 -0.147091    0.14587 -0.0601983
 -0.263066 -0.0371382   0.263144
-0.0419629   0.180692   0.263398
 0.263034 -0.262934  0.234779
 0.180943 0.0344608  0.263655
-0.042815 -0.263097   0.26322
0.00857385   -0.18436  -0.499623
-0.0451518  -0.262538  -0.151037
 0.136759 -0.262883  0.263144
 -0.157364    0.15812 0.00823829
-0.262813  0.151067 0.0515613
-0.263072  0.263125  -0.12344
-0.263076  -0.26296 -0.053079
-0.262757 0.0907684  0.129995
-0.00150972    -0.18455    0.263468
 0.125229 -0.262934  0.263181
-0.263124  0.263082 -0.013671
   -0.26253   -0.157531 0.000848275
-0.140766 -0.120563 -0.499721
  0.263046 -0.0786774  -0.263121
 -0.262256 -0.0516162    0.15019
-0.262518 -0.157466 0.0119016
-0.262934   0.26303  0.172617
-0.262583 -0.115725 -0.108048
 0.262975  0.186701 -0.263057
  0.263116 -0.0332062  -0.263197
 -0.156479   0.152558 -0.0425638
 -0.14653 -0.112066  0.263558
-0.0315545   0.263142   -0.26305
0.109934 0.263119 0.263157
  0.263104 -0.0423237   -0.26317
0.0493584  0.177893  -0.49936
0.0681505  0.171462 -0.499334
-0.147615 -0.110499  0.263544
-0.107598 -0.149336 -0.499655
0.0578727   -0.1746 -0.499595
 0.263072 -0.229903  0.263041
 0.262262 0.0262571 -0.157635
 -0.262587   -0.15759 -0.0199325
  0.149947   0.151696 -0.0530605
0.263027 0.122806 0.263106
-0.154964 0.0998544  0.499322
-0.263033   0.17849 -0.263086
0.262862 0.213072  0.26309
0.101086 0.102974 -0.12149
0.0616253 -0.262623 -0.146168
  0.153095  -0.153961 -0.0404992
 0.046012 -0.178949 -0.499569
-0.166267 -0.263106  0.263146
-0.00486863    0.263074    0.263198
0.0902949  0.262897 -0.131317
-0.262691  -0.14636 0.0612891
 0.262999 -0.262904 0.0998805
0.0485465 -0.177386  0.263662
-0.0458305  -0.263087  -0.263255
   0.17985 -0.0442738  -0.263582
 -0.263123 -0.0935217  -0.263113
   0.157853    0.262644 -0.00842803
0.0541371 -0.176251 -0.499563
 0.262368 0.0918375 -0.128697
-0.0272801   0.182664  -0.499531
 0.262994 -0.262943 0.0691439
-0.263051   0.26311 -0.141985
-0.263079   0.22607 -0.262948
 -0.144719  -0.262542 -0.0633235
 0.184701 0.0102364  0.263457
 0.200391 -0.262873  0.263078
-0.161568  0.263015  0.263052
-0.0225929  -0.263092   0.263254
  0.263044 -0.0473768    0.15115
 -0.262361 -0.0684294  -0.142197
 0.262411  0.149585 0.0523087
   0.13652   0.262781 -0.0808423
  0.158624 -0.0951965  -0.499792
  0.154389  -0.156134 -0.0343195
0.0751679  0.168764 -0.263585
 0.120207 -0.262428 -0.102169
0.150782 0.105984 0.263714
 -0.17645 0.0578339 -0.263781
0.00969958   0.262694   0.158818
-0.157043  0.263061  0.263033
-0.102477  0.154632  0.263444
-0.0558269   0.263139  -0.263066
 0.262387  0.102029 -0.120834
-0.134181  0.128002 -0.499131
-0.262511 -0.108492  0.115731
-0.0358614    0.18138    0.49927
 -0.165775 -0.0795211   0.499542
-0.0594976   0.262863   0.147065
  0.262999 -0.0973618  -0.263115
-0.262824 -0.138849 0.0758756
-0.135978 -0.262608 -0.082872
-0.262761 -0.126279 0.0944504
-0.263087 -0.262737 -0.133848
 0.132807   0.26224 0.0874069
-0.263082 -0.262752 -0.129997
 0.263134 0.0491806 -0.263173
-0.128479 -0.127859 -0.092943
-0.157951  0.262499  0.011584
0.263021 0.172281   0.2631
-0.0615239   0.262909   0.146032
  0.16731 -0.262821  0.263147
0.186464 0.263073 0.263116
  0.263088   -0.26293 -0.0125243
 -0.143084   0.262072 -0.0702157
-0.262716 -0.147399 0.0587678
0.0152315  0.263073  0.263206
0.0908585 -0.262911  0.129418
0.00440318   0.184961   0.499207
0.0780321 -0.262833  0.137113
-0.232377 -0.262904  0.263131
 0.184047 0.0159397 -0.499779
-0.180713 0.0399434 -0.499938
-0.263071  0.263124 -0.134243
 -0.263049  -0.263042 -0.0202653
0.093315 0.159221 0.499362
0.00363849  -0.184669  -0.499613
 0.113723 -0.145805   0.26393
-0.262973  0.263032  0.121668
-0.263057  0.104876  0.263061
0.0659623  0.262254  0.144361
-0.263108 -0.196253 -0.262985
 -0.158191 -0.0950284  -0.263571
 0.149322  0.151361 0.0512099
 0.263073 -0.262933  0.263038
 -0.128594   0.261934 -0.0916216
 -0.263042 0.00506167   0.263178
 0.027133  0.263117 -0.263039
0.124104 0.137334 0.499078
-0.0170358  -0.183869   0.263455
-0.262255  0.010624 -0.158367
 0.164018 0.0874734 -0.263553
-0.263071  0.262996 -0.184207
-0.262998  0.263071 0.0850638
 -0.263089  -0.262895 -0.0712954
  0.137575  -0.262781 -0.0787749
0.0359784 -0.262494  0.155692
-0.184342 0.0100811 -0.263312
0.0907438  0.161437 -0.499333
  0.159813  -0.158184 0.00332663
-0.262643 -0.151841 0.0473208
0.00390227   0.262882  -0.159116
-0.263117 -0.262814 -0.262822
  0.262187    0.14078 -0.0736305
 -0.263066   0.263076 0.00662296
 -0.176212 -0.0579238  -0.263478
-0.262803 0.0509335 -0.263262
-0.263136 -0.106622 -0.263079
  0.126516  -0.129166 -0.0947848
0.105553 0.262229  0.11764
  -0.262261 -0.00360928    0.160602
0.115252 0.144628 0.264146
 0.262577  0.263011 -0.219009
 0.158256  -0.26277 0.0212919
-0.181234 0.0334263 -0.263496
-0.181092 0.0335195  0.263409
 0.262279 0.0711306 -0.142707
-0.10719 0.150868 0.499227
-0.0142287   0.263065   0.263192
 -0.157344   0.158806 0.00248845
-0.263139 -0.262814  0.233927
 -0.156798  -0.262617 -0.0287419
0.00345011  -0.184659  -0.499605
-0.0197912  -0.182558   0.499406
-0.148814  -0.10962  0.499612
-0.263103 -0.197556   0.26311
-0.107685 -0.263091  0.263162
  0.26231 -0.157895 0.0154613
-0.0262343   0.182243   0.499268
0.109468 0.149404 0.264131
-0.169672 0.0719605 -0.263753
 0.158874  -0.15822 0.0184101
 -0.17935  0.044218 -0.263526
-0.0209221   0.182717   0.499251
 -0.262647  -0.149882 -0.0521555
-0.263138 -0.262856  0.107034
 0.263077 -0.234436  0.263056
-0.158106 -0.157649 0.0161757
 0.263022  0.263043 -0.162901
0.163529 -0.26284 0.263104
 0.262157  0.151032 -0.049024
-0.0484644  -0.262583   0.150927
  0.127492  -0.262565 -0.0924153
-0.262879  0.263008  0.190463
 0.262992 -0.126649 -0.263137
0.0139843 -0.185261   0.26348
 0.137375  0.262359 0.0801351
 0.181153 0.0333847  0.263631
 -0.262593  -0.126698 -0.0973001
    0.15858   -0.158811 -0.00900801
   0.158652    0.159065 -0.00227894
0.0989563 -0.263027 -0.263125
-0.263102  0.262943 -0.207771
  0.148315   0.262748 -0.0539978
 0.262505  0.262907 -0.263098
  0.262968  -0.262976 -0.0961074
 0.262905  0.192384 -0.263056
-0.263131 -0.262779  0.138141
-0.262753 0.0842376 -0.133434
-0.0724382   0.169837   0.499232
-0.143662 -0.145945  0.064765
-0.0182538    0.18396  -0.263401
-0.142344   0.11723 -0.499318
-0.104575  0.105128  0.118416
-0.0457967    0.17826  -0.499427
-0.11088 0.263016  0.11302
-0.0803884  -0.165644   0.263536
 0.179646   0.26309 -0.263138
 0.263058 -0.262922  0.263086
-0.262973  0.121736 -0.100636
-0.262601   0.07358  0.140465
 -0.13924 -0.122101 -0.499707
 -0.145082  -0.262553 -0.0623707
0.157578 0.155956 0.024089
 0.263075 -0.058134  0.263035
-0.137537 -0.123797  0.263615
0.0970184  -0.26304 -0.263147
-0.108738  0.108704  0.114403
-0.263091 -0.262763 -0.262818
-0.263036  0.263047  0.131458
 0.263122  0.075305 -0.263192
0.152649 0.262768 0.041008
 0.262262 0.0249181 -0.157752
 0.014701  0.184295 -0.499485
-0.206031 -0.262982 -0.262889
-0.263106  -0.19788 -0.262917
 0.120811 -0.121949 -0.103477
0.0369427 -0.180623 -0.263798
0.0211254  0.183185 -0.499423
-0.263066   0.21358  -0.26295
0.140097 0.120355 0.263733
-0.199186  0.263067 -0.262982
-0.111863  0.146767   0.26343
 0.263044  0.263037 -0.116509
 0.262702 -0.204583  -0.26313
-0.0726892   0.169266    0.26342
0.0246516  0.263089  0.263239
  0.26243  0.262978 -0.263115
 0.262215  -0.14755 0.0565052
-0.263078  0.217103 -0.262898
  0.263048 -0.0468221   0.151268
 0.147016 -0.262828  0.263159
-0.263066   0.21356 -0.262958
  0.158541 -0.0953545  -0.499789
 0.217143 -0.262879  0.263052
-0.138677  0.139392 0.0766514
-0.0957743   0.263014   0.126432
  0.263077 -0.0604101   -0.26314
-0.134908  0.262522 0.0833922
-0.0878832   0.162006  -0.499208
-0.183731 0.0210249 -0.499938
-0.0219736  -0.262511  -0.157281
 0.262693 -0.146908 -0.059045
 0.184812 0.0103425  0.263452
 -0.174585 -0.0610301   0.499458
-0.262546 -0.106033  -0.11693
-0.156466 0.0979862  -0.26367
 -0.263125   0.263085 -0.0411123
-0.142455  0.118568 -0.263611
-0.263085 -0.262871 -0.176387
 0.262461  0.136113 0.0811729
-0.262993  0.130886  -0.26316
-0.263137 -0.125019 -0.263066
  0.262183   0.138588 -0.0769081
 0.118636  0.263067 -0.263145
 -0.158093    0.26252 0.00771792
 0.262945   0.26303 -0.181331
 0.072809  0.262995 -0.263265
-0.262884  0.263018  0.187268
-0.263006 0.0930843   0.26312
  0.262271   0.125732 -0.0952044
  0.184408 0.00272022  -0.263633
-0.263113 -0.262831  0.237182
  0.184007 0.00409961     0.4997
 -0.263084  -0.262883 -0.0695685
-0.0506119  -0.178127   0.263438
0.0961745  0.157648  0.499268
  0.262183   0.140195 -0.0744337
  0.146215   0.262812 -0.0611317
 0.154768  0.263035 -0.263139
0.263073 -0.26299 0.229723
-0.0416707   0.180772   0.263406
 -0.162917 -0.0863048   0.263489
 0.263075 -0.239211  0.263054
 -0.184203 -0.0199147   0.499374
-0.0542858   -0.17815   0.499207
 0.126562  0.126188 0.0966021
-0.263063  0.213983 -0.262962
 0.159688 -0.158935 0.0129345
 0.262376  0.112831 -0.112279
-0.0499993   0.263137  -0.263002
-0.263057  0.263029 -0.173079
-0.133109 -0.131467 0.0885239
  0.183557 -0.0220579   0.499507
 0.26311  0.26301 0.114299
  0.263079 -0.0369535   0.263121
0.0146175 -0.183926 -0.263815
  0.175987 -0.0560962   0.499285
 0.144095 -0.263075 0.0648615
-0.262732 -0.149072 0.0547709
 0.262996 -0.262931 0.0819374
 -0.262774   0.157747 -0.0223094
-0.0878346   -0.26261   -0.13178
0.262825 0.217787 0.263094
0.0522896 -0.262582  0.149274
0.262972  0.19605 0.263077
0.0955238  0.262226  0.125837
 -0.157271   -0.26263 -0.0262009
 0.134314 -0.126165  0.499584
0.100307 -0.26294 0.263259
0.0659458  0.262258  0.144331
 -0.183755 -0.0193823  -0.263338
0.0493358 -0.177981  -0.26373
 -0.263127   0.263081 -0.0292617
-0.151123  0.148746 0.0551539
  0.153194    -0.1542 -0.0402837
0.0447794  0.179423 -0.263591
-0.263122 -0.146749  -0.26304
-0.185281  0.262814  0.263055
 -0.18359 0.0227061  0.263406
 -0.262644  -0.150344 -0.0510629
 0.263057 -0.262923  0.263086
0.221529 0.262938 0.263118
 0.183251 0.0191538 -0.263659
-0.0196181  -0.262422   0.157506
-0.140939 -0.262437 0.0718893
 0.263004 -0.262929 0.0815305
-0.127413  0.133783  0.263425
-0.263063 -0.262968 0.0265706
 -0.262273 -0.0276619  -0.155983
-0.0145114   0.263131  -0.263083
-0.0963433  -0.158706  -0.499632
-0.263041  0.183314 -0.263062
-0.0900927   0.160457   0.499224
-0.0259724  -0.183589   -0.26381
-0.131111  0.130996 -0.499111
-0.262663  0.262522  0.263132
-0.0144569   0.184463  -0.263358
 -0.263107 -0.0883048   0.263025
  0.148527   0.148648 -0.0582375
-0.172835 0.0651982  0.499231
 0.118195 -0.117471 -0.107881
-0.141224 -0.119962 -0.499747
-0.161513 0.0895053  0.263505
 -0.262646  -0.152231 -0.0436229
0.0564814 -0.262968  0.263217
 0.229902  -0.26313 -0.263078
  0.184048 0.00575459  -0.499776
 -0.262986   0.122743 -0.0995525
 0.262982  0.178971 -0.263058
-0.263106 -0.228312  -0.26278
-0.105315 -0.263102 -0.263146
  0.183928 -0.0061684    0.49963
-0.134227  0.127947 -0.499136
 0.117241 -0.262523 -0.106335
 -0.262784 -0.0275861  -0.263154
  0.161431 -0.0910291    0.26368
  0.130189   0.128163 -0.0934223
 0.262467 -0.263132 -0.263102
0.262814 0.262942 0.226915
 0.201153  0.263064 -0.263115
  0.262662  -0.124828 -0.0975821
-0.020341  0.183745 -0.499576
  0.263049  -0.262915 0.00344574
0.00234761   0.184851   0.499251
-0.156936  0.262504   0.02116
-0.262992 0.0262941  0.263164
 -0.133753  -0.262604 -0.0876251
 0.263007 -0.118235 -0.263132
 0.263123   0.07608 -0.263188
 0.263016 -0.143474 -0.263131
-0.106748  0.151331   0.26341
 0.263018 -0.120186 -0.263125
-0.262778 0.0372223 -0.263215
  0.140034   -0.26278 -0.0751784
 0.263114  0.262969 0.0665904
 -0.11115  0.263118 -0.263115
0.0170453 -0.185206  0.263494
0.150389 0.150335 -0.05236
-0.134746  0.263051  0.263036
 0.154444  0.262736 0.0361116
-0.263073   0.26312 -0.125932
-0.263044  0.263035  0.124157
 0.153442  0.262745 0.0381478
-0.0289349  -0.182908  -0.263865
 0.262884  -0.26312 -0.193715
 0.101293 -0.263029 -0.263118
-0.263107 -0.165796  0.263057
-0.263102  0.139262  0.263099
 0.175323 0.0573433 -0.263535
 0.127002 -0.133608 -0.499578
-0.262667 0.0856727  0.133919
   0.16484 -0.0836204   0.263522
-0.139136 -0.263099 -0.263034
 0.127094 -0.262967 -0.263107
-0.263111 -0.234033 -0.262785
-0.132447  0.262679  0.086944
 0.262983 -0.158188 -0.263128
 0.263074 -0.262973  0.234961
  0.03261  -0.18128 -0.263738
 -0.157696  -0.262626 -0.0145087
0.0664251  0.263082 -0.263211
  0.263047 -0.0341093   0.154026
    0.1599  -0.158803 0.00313235
  0.124547   0.262771 -0.0983039
-0.0229818  -0.262552  -0.157337
-0.262747  0.211162  0.263125
 0.151673 -0.106096  0.263922
 0.263127  0.262999 0.0868803
-0.213078 -0.262955 -0.262823
-0.231349 -0.262844 -0.262833
-0.263139 -0.115676  -0.26307
 -0.158155  -0.262598 0.00631415
-0.213016 -0.262955 -0.262844
 0.166474   0.07968 -0.499732
-0.26295 0.109062 0.113163
 0.110445 -0.147596  0.499641
0.262744 0.262856 0.263114
0.0189091 -0.262612 -0.156396
  0.263084  -0.262962 -0.0661714
-0.173815 -0.062094  -0.49987
 0.263034 0.0942559  0.263149
  0.179371 -0.0455268  -0.263596
-0.150705 -0.262443 0.0514157
-0.157113  0.154124 -0.037808
  0.263021 -0.0755894   0.139627
0.0887512  0.262897  -0.13273
  0.262626  -0.157125 -0.0184417
-0.0622435  -0.263097   0.263188
  0.136956  -0.262759 -0.0797171
 0.111392 -0.148085   0.26398
-0.0826802  -0.262596   -0.13596
 0.262498  0.262649 -0.263092
 -0.142003  -0.142716 -0.0691362
0.0664265  0.171662  0.499523
  0.165055 -0.0819407  -0.263603
 0.017912 -0.262621 -0.156505
-0.138271 -0.122201 -0.263591
 0.263065 -0.262914   0.26308
  0.262673  -0.124986 -0.0972259
 0.263094 -0.262963  0.160214
 -0.262741   0.157429 -0.0245708
  -0.1331 -0.131457 0.0885374
 -0.157084   0.154098 -0.0378573
 -0.183531 -0.0245614   0.499417
0.0738724 -0.169315   0.26373
-0.262678  0.262553  0.246712
-0.262607 0.0645343  0.144632
 0.263136 -0.166596  0.262921
 0.156452 0.0996941  0.499104
 0.263114   0.13187 -0.263091
-0.262557  0.262615  0.263086
-0.263046  0.166313    0.2631
 -0.262248 -0.0198728  -0.157547
0.0645524 -0.172987   -0.2636
-0.0225954   0.182563   0.499259
  0.263054 -0.0719368  -0.263149
-0.150719 -0.262442 0.0513374
-0.173341 0.0644785  0.263475
0.0454916  0.179544  0.499562
-0.107184   0.26203 -0.116849
-0.263058  0.262988 -0.175016
-0.179842 -0.040392 -0.263446
 -0.164141 -0.0837778  -0.263552
  0.147513   -0.14707 -0.0570641
 -0.263115 -0.0965891  -0.263172
  0.263055   0.262794 -0.0616726
-0.262881 0.0997623 -0.263133
0.116755 0.262217 0.107226
 -0.147226   0.262225 -0.0616239
-0.0228646   -0.26254  -0.157224
 0.160353 -0.091536  0.499311
 0.262993 -0.262935 0.0768896
-0.262826  0.134365 0.0849843
 -0.172204 -0.0678329  -0.499864
-0.262762  0.106456  0.115836
-0.263057 -0.200806   0.26313
 -0.156963   0.153383 -0.0404889
  0.263134 0.00246481  -0.263231
-0.191855 -0.263056  0.263135
 0.128304 -0.262925  0.263167
0.0895499  0.161056 -0.263556
0.047979 0.179106 0.499559
-0.100196  0.156373  0.263426
-0.262824  0.262951  0.204957
-0.184634 0.0119986  0.499309
-0.0721495  -0.262778   0.139904
  0.145117  -0.262791 -0.0649149
 -0.141179   0.261986 -0.0735732
 0.149901 -0.149548 0.0524565
0.0712222 -0.170624  0.263718
-0.0117902  -0.184014   0.263433
-0.0250562  -0.262528  -0.156753
-0.226969  0.262806 -0.262936
0.0230468  -0.18416  0.263635
-0.0511642   0.177709   0.263387
 0.179922 0.0448982 -0.263539
0.0454829  0.263096  0.263259
 -0.263096   0.263083 0.00391713
-0.0633394   0.263009   0.263132
-0.173855 0.0629186  0.263455
-0.262843  0.121447  0.100692
-0.263127 -0.262756  0.210643
0.0661985 -0.172159 -0.263585
 0.262745 -0.101137 -0.122056
 -0.13288 -0.127797  0.499615
-0.0951081   0.263137  -0.263126
-0.125663  0.134881 -0.263537
 0.133059 -0.127425   0.26394
 0.263055 -0.010851  0.158472
-0.194348 -0.263051  0.263143
-0.0319968   0.181702   0.499268
 -0.183319 -0.0348063   0.263413
 -0.262949   0.124046 -0.0980491
0.00114256  -0.185348  -0.263801
-0.262334 -0.059423 -0.146533
   0.17947 -0.0414618   0.499269
-0.262818  0.157599 0.0067069
-0.263104 -0.211071  0.263135
-0.262384 -0.068583 -0.142201
-0.153878 -0.262457 0.0359956
  0.263032 -0.0159962   0.158056
-0.263029 -0.262897 0.0525945
0.0158027  0.183623 -0.263564
  -0.26307 -0.0594363   0.263063
-0.262807  0.133075 0.0866566
-0.125899  0.134637  0.499241
-0.262534 -0.157301 0.0115934
0.0616112 -0.174171 -0.263595
-0.262855  0.131467 0.0891714
-0.126164 -0.263105  0.263151
0.0271706 -0.262621 -0.155166
-0.263063  0.212743 -0.262962
  0.262932 -0.0428825  -0.152524
-0.0879027     0.1623  -0.263429
-0.0984753   0.263003   0.263078
-0.149337 -0.108412  -0.26359
 0.262494 -0.263132 -0.263102
0.262808 0.262886 0.239357
 0.115187 -0.144522 -0.263784
 0.263042  0.263049 -0.147658
-0.143924  0.115882  0.499304
0.0879585  0.262894 -0.133107
0.262876 0.215486 0.263064
 -0.263112 -0.0935621   0.263036
-0.106078  0.263032  0.117407
0.0572152 -0.262978  0.263222
-0.263132 -0.262808  0.263143
 0.262582  0.263006 -0.224868
   0.263078   -0.262926 -0.00838061
-0.0975292  -0.262705   0.126645
  0.262227   0.133678 -0.0839058
0.0492665 -0.177918 -0.499565
0.263031 0.263104 0.151866
0.0681032   0.26224  0.143131
0.262968 0.263118 0.172953
 0.262826 -0.075071  -0.13929
-0.136261  0.137625 0.0805257
-0.228475 -0.262855 -0.262834
 0.166056   0.26309 -0.263131
 0.115469 -0.115402  0.108011
-0.263142 -0.262832  0.116092
-0.0168453  -0.185684   -0.26385
  0.26253  0.136681 0.0802107
0.263018 0.109552 0.263133
-0.263099 -0.195762  0.263123
-0.0256282   0.263024  -0.155952
   -0.15783   -0.262601 -0.00654174
0.0609695  0.174083 -0.263596
 -0.176276 -0.0577386  -0.263482
-0.0518009   0.263021    0.26316
-0.263075  0.263107 -0.111936
 -0.148568   0.147288 -0.0574266
0.0842039  0.263084 -0.263198
-0.183315 0.0216646  0.499311
-0.102614  0.153552 -0.499119
0.0614094 -0.173468 -0.499576
-0.087461  0.262768 -0.132592
 -0.263038 0.00355849   0.263185
 -0.262627  -0.130015 -0.0909885
 -0.263043  -0.263023 -0.0225555
0.191301 0.263061 0.263109
-0.262588 0.0536911  0.149853
-0.158134 -0.157653 0.0184212
-0.263059  0.263078 -0.158513
 -0.163845 -0.0843783   0.263475
0.00577591  -0.184621   0.499705
  0.262203   0.154672 -0.0311974
  0.262474   0.157599 0.00698577
  -0.26237 -0.0864561  -0.133556
 0.185051 0.0099345   0.26345
-0.021996 -0.183429  0.263415
-0.144347  0.114546   0.26337
  0.13945  0.262442 0.0757788
 0.262224 -0.135542 0.0808371
 0.133799 -0.263078 0.0855156
-0.263115 -0.262786 -0.262833
 -0.262966   0.136078 -0.0833835
-0.263134 -0.110695 -0.263083
0.0913546 -0.262915  0.129097
  -0.26245 -0.0943985    0.12658
 0.262993 -0.262979 -0.100574
0.262969 0.196167 0.263092
 0.101968  0.103467 -0.120769
-0.262561 0.0529882  0.149917
-0.111296 -0.262589  0.112335
 -0.158467 -0.0930744   -0.49981
-0.263136 -0.262799  0.263132
  0.0826 0.165732 0.264169
-0.0323375   0.263045   0.263172
-0.0141259   0.183531   0.263428
0.262312 0.114614 -0.11037
-0.149698 -0.149912 0.0503963
 -0.263058 -0.0396946   0.263135
-0.263111 -0.262823 -0.262763
  0.17244 0.0652847  0.499449
  0.177443 -0.0502223   0.499227
0.0186073  0.262709  0.157491
-0.0669894   0.172398  -0.263392
0.262818 0.263018 0.214498
-0.263124 -0.230583  0.263134
-0.173291  0.263115 -0.263015
-0.122896 -0.121989 -0.101046
 0.107991 -0.262407 -0.118254
-0.262568 0.0520489   0.15017
 -0.183378 -0.0224477  -0.263431
-0.262987  0.263023   0.10628
 -0.175151 -0.0604595  -0.263528
 -0.157563  -0.156679 -0.0292479
0.200445 0.263004 0.263118
 0.262306  0.116654 -0.107686
-0.142554 -0.117006 -0.263583
-0.134932  0.262518 0.0832252
-0.263143 -0.262799  0.126827
  0.26308 -0.119092  0.262905
  -0.26307 -0.0312411   0.263163
-0.263118  -0.26286  0.109698
 -0.262653     -0.149 -0.0542655
   0.263049   -0.262905 -0.00343114
-0.0663574  -0.263095   0.263135
 0.263122 0.0893724 -0.263164
-0.146996  0.145441 0.0625871
-0.263108  -0.20137 -0.262921
 0.167771  0.263086 -0.263137
 0.119011 -0.262982  0.103795
 0.263135  0.262975 0.0682113
  0.262869 -0.0484898   -0.15118
 0.119958 -0.262478 -0.102517
0.046344 0.179406 0.499561
 -0.160262 -0.0910594   0.499572
 0.263116 0.0707586 -0.263196
0.262443 0.132122 0.087356
 -0.137701   0.262057 -0.0794188
 0.127327 -0.263016 -0.263072
  0.262164   0.148434 -0.0585927
 0.161828 0.0896268  0.263768
  0.263043 -0.0705541   0.142006
 0.156854  0.155315 0.0291677
    0.1569   0.262625 -0.0225466
  0.184048 -0.0190221  -0.263601
 0.215049 -0.263129 -0.263019
-0.26276 0.217075 0.263056
-0.0133688  -0.263093   -0.26331
-0.0350368  -0.181282   0.499275
-0.15134  0.26247 0.047671
 0.262819 0.0504759  0.150066
 -0.176004 -0.0582418  -0.263529
-0.129652 -0.262539 0.0914688
  0.157451  -0.262738 -0.0216366
 0.263076 -0.262846  0.263066
 0.262483  0.143937 0.0646928
-0.146883 -0.262421 0.0601779
   0.158361    0.158768 -0.00874287
 0.154284  0.100656 -0.499635
 0.157343 -0.262787 0.0250963
-0.263072 -0.262869 -0.172642
   0.15463  -0.156395 -0.0326387
