-0.261465  0.261568 0.0832839
-0.261151 -0.261367 -0.263937
0.170095 -0.26183 0.263684
-0.261318 0.0636049  0.146883
 -0.261241 -0.0812541   0.263609
 0.183637 -0.030815 -0.498358
 0.261836  0.155152 0.0403927
 0.261851  0.158176 0.0152275
 0.261409  0.224104 -0.263495
 -0.155649  -0.157581 -0.0388877
 0.157801  0.261672 0.0312672
0.0794614 -0.165658 -0.498395
-0.261612  0.261687 -0.112695
-0.156541  0.261557 0.0228276
-0.0490003  -0.261577   0.148926
0.173084 0.261549 0.263682
-0.0732512   0.261627  -0.263381
-0.0920699  -0.159992  -0.498408
0.0152739  0.261612 -0.157735
-0.261818 0.0582453 -0.263315
0.0413878  0.178848  0.263326
-0.148246  0.107812  0.263814
-0.104224  0.261599  0.117971
-0.0881769  -0.261626   0.263588
 -0.143066  -0.143528 -0.0699239
 -0.26145  -0.26146 -0.165929
 0.261719 0.0904216 -0.263235
 -0.261308 0.00560354   0.160358
  0.261635 -0.0354794  -0.263024
-0.0285102    0.18216  -0.263315
 0.261596 0.0180947 -0.157667
-0.261784 0.0912082 -0.263445
-0.00734783     0.18466   -0.263255
 -0.156649   0.261657 0.00464476
  0.159918  -0.160334 -0.0104252
-0.173721 0.0591676  0.263513
  0.18249 0.0215291  0.498593
-0.0679001  -0.173048   0.498575
-0.261424  -0.11387 -0.113332
 0.122378 -0.136827 -0.263444
-0.101358 -0.154499  0.263761
  0.146987  -0.261781 -0.0596417
-0.183539 0.0124054 -0.498274
-0.0476659  -0.179214   0.263375
 0.261553 -0.151008 0.0447675
 -0.157768 -0.0950396  -0.263601
-0.261399 -0.261603  0.119216
 -0.11128 -0.147369 -0.263688
-0.168257 -0.075187 -0.263469
  0.261635 -0.0269484   0.154179
 0.261696 -0.261719 0.0767548
-0.261141 -0.204776  0.264287
0.0788832 -0.166933  0.498582
-0.261138 -0.261394 -0.263938
-0.0237983  -0.261704  -0.263066
-0.0605004  -0.176034   0.498576
-0.0822151   0.261663   0.135373
-0.0520201   0.261583  -0.263315
0.261841 0.261742 0.110193
-0.261308  0.261491   0.19288
0.261819 0.116188 0.263639
0.0678521  0.261805  0.143256
 0.261731 0.0866571 -0.263181
-0.261304  0.261491   0.20244
-0.0351309  -0.181675   0.263247
0.261377 0.261417 -0.21463
0.261789 0.126156 0.263698
 0.261581 -0.261681 -0.142371
 -0.261603 -0.0559946   -0.14658
0.0686259 -0.261656  0.141283
0.106565 0.110486 0.115012
 0.118057  0.261579 -0.263594
0.139351 0.120346 -0.26352
-0.119377  -0.26157  0.263837
  0.261645 -0.0495316  -0.263059
  0.11152 -0.261664  0.111724
 0.129365 -0.130699  0.263794
 0.156544 -0.158438 0.0243623
-0.261458  0.261585 0.0903937
0.261708 0.151916 0.263735
 0.109403 -0.149383 -0.498379
 0.113208 -0.146539  0.263711
-0.00127583    0.184456   -0.263236
-0.261311   0.26145  0.263865
-0.260767  -0.26141 -0.263934
 -0.134076  -0.261534 -0.0865904
-0.261639  0.168692 -0.263852
0.0152592  0.261829  0.263289
 0.151155 -0.104225  -0.49836
-0.261131 -0.261421  0.196699
-0.0328725   0.181474   0.263436
0.261644 0.261419 0.216954
0.00844505   0.184166  -0.498414
-0.154801 -0.261511  0.264048
 -0.133657  -0.261532 -0.0871151
-0.261525 -0.158061 0.0209306
 -0.160012 -0.0955801    0.49856
 0.159789 0.0928057  0.498473
-0.0601804  -0.174694  -0.498406
-0.111673 -0.261528  0.110683
  0.261551 -0.0744856    -0.1383
 -0.261632  -0.261538 -0.0676601
-0.261306  0.203194  0.264037
-0.261583 -0.261584 0.0433526
-0.203139  0.261693 -0.263818
 -0.261484   0.157562 0.00340953
-0.213955  0.261704 -0.263809
 0.159686    0.1597 0.0107925
 -0.26159 -0.261554 0.0264521
-0.123745 -0.123131 -0.101677
-0.0635914  -0.261688  -0.263234
 0.261611 0.0934637 -0.125288
-0.261642 0.0696506 -0.143313
0.261656 0.261465 -0.15591
 0.261592 -0.133063  0.263872
-0.145356  0.261589     0.264
  0.156899 -0.0974118   0.263816
 0.184986  0.261426 -0.263583
 0.156743 -0.160958 -0.028076
  0.175625 -0.0528649   0.263617
 0.261512  0.261437 -0.181293
-0.261531  0.261733 -0.194049
 -0.158321  -0.157932 -0.0322248
  0.175269 -0.0539176   0.263673
-0.183697 0.0159047   0.26334
0.133019 0.126404 0.498448
  0.15385 -0.153807 0.0419851
 0.210287  0.261406 -0.263532
-0.139286 -0.261544  0.263956
  0.261622 -0.0429934   0.150845
-0.174643 0.0598465 -0.263632
 -0.26146 -0.139227 0.0768894
 0.261582 -0.261679 -0.151901
 -0.261737 -0.0351287  -0.263269
0.161574 0.089273 0.498477
    0.2617   0.128899 -0.0924578
 0.139587 -0.118042  0.498602
  0.261845   0.261683 -0.0389912
 0.146384  0.110388 -0.263485
  0.261546 -0.0957827   0.127692
 0.142225 -0.142787 0.0729011
-0.261319  0.261567  0.148985
-0.0569235   0.175109  -0.263511
 0.26183 0.261729 0.118199
 -0.261632   0.261926 -0.0876127
-0.137951  0.261669 -0.263731
-0.101608 -0.153944  0.498547
0.0444926 -0.179205 -0.498386
 0.261539 -0.145756 0.0643799
 0.261379  0.261399 -0.263483
-0.0344212  -0.181449   0.498557
 0.261692  -0.26172 0.0690475
  0.18336 0.0130814  0.498607
 -0.175404 -0.0583876   0.263568
 0.261584 -0.261581 -0.185437
0.103163 0.151783 0.498537
 0.152447 -0.102407 -0.498358
 0.172996 0.0605342  0.498499
0.0646249  -0.26168  0.263519
  0.261592  -0.261847 -0.0306876
-0.260993  -0.26133  0.264437
  0.26174 0.0849423  0.133785
-0.26132 0.032951 0.263327
-0.0788453   0.165186  -0.263542
0.121051 0.261691 0.101749
-0.172204 0.0646889  0.263524
 0.261863  0.261723 0.0172681
0.0326373 -0.261675 -0.153997
 -0.158751  -0.261412 -0.0107989
-0.0343466    0.26158  -0.263276
-0.261673 0.0189418 -0.156188
0.0213268 -0.261669 -0.156763
0.0260585  0.261826  0.156149
 -0.261712 -0.0881962  -0.263425
0.0687972 -0.171812  0.498583
-0.095688 -0.157579  0.263736
-0.261496  0.261718 -0.263767
 -0.261486   0.157374 0.00467235
-0.183643 0.0179621 -0.498268
-0.123271  0.261711  0.264006
 -0.261414  -0.129261 -0.0957585
-0.144073 -0.117625  0.263844
  0.147435   0.261618 -0.0617741
-0.261101 -0.261309  0.264437
 -0.15621  0.261553 0.0253614
 0.133813  0.132434 0.0874177
-0.144017    0.1144 -0.263871
-0.261486  0.261657 0.0544006
 0.261686 -0.261731  0.104178
-0.133989  0.261618  0.264007
-0.261317 0.0620106  0.147397
 0.261726  0.261501 -0.125855
 -0.261513    0.15697 -0.0274182
-0.261492  0.261668 0.0447365
 -0.261595   0.144434 -0.0715378
-0.261542  0.219142 -0.263801
0.0468024  0.178753  0.498608
-0.187778 -0.261515 -0.263845
 0.261581 -0.261305 -0.195821
0.0394095 -0.261678 -0.152063
 -0.261512   0.157285 -0.0176373
 -0.16632 -0.077965  0.263717
  0.261624 -0.0330711   0.152899
 0.177475 0.0445008  0.498553
 0.103451  0.261594 -0.120449
 0.261523  0.175528 -0.263542
-0.261532  0.261734 -0.194979
-0.121076 -0.119767 -0.104554
  -0.15828 -0.0939204  -0.498351
-0.261691 0.0136977 -0.156458
 -0.26142 -0.125632 -0.101315
 0.261851  0.158119 0.0179777
0.261641  0.26141 0.224518
-0.185244 0.0005823   0.49862
 -0.06225 -0.175315  0.498577
0.261637 0.187489 0.263813
  0.137676   0.261615 -0.0798447
-0.0947182  -0.158607   0.263703
 -0.148864   -0.26149 -0.0544312
-0.0757114   0.261629  -0.263398
 0.10774  0.14769 0.263562
 0.261519  0.261438 -0.181433
-0.156461 -0.261467 0.0276677
 0.128223    0.2617 0.0927779
   0.183399 -0.00191986    0.263339
 0.140309 -0.118999 -0.263397
-0.111537 -0.146024  0.498552
-0.260942 -0.113425  0.263757
 0.176807 0.0553582 -0.263119
 0.130945 -0.129418  0.498602
0.261752 0.145696  0.26377
-0.261384   0.12952 0.0922052
-0.0865881   0.161428  -0.498395
-0.00357561   -0.261655   -0.158355
-0.261378  0.122683 0.0995829
-0.261323  0.261516  0.164941
 0.261594 -0.134135  0.263874
  0.158236   0.160074 -0.0170467
 0.261732 0.0707594 -0.263161
-0.261679 0.0172552 -0.156515
-0.261491 -0.146782 0.0607825
0.0560679  0.175957  0.498586
-0.261486  0.261663 0.0518539
 0.261583 -0.261612 -0.177238
0.143287 0.261666 0.263639
-0.261337 0.0426116  0.263365
  0.17232 0.0618448  0.498515
  0.15507 -0.155644 0.0371839
-0.134498 -0.261547  0.263927
0.0211693 -0.261676 -0.157087
  0.158368   0.160599 -0.0158406
-0.261309  0.261455  0.240378
  0.129376   0.125877 -0.0951636
0.261523 -0.26178 0.166127
  0.261527  -0.140193 -0.0739285
-0.0273301  -0.261568   0.154269
-0.146968  0.261521 0.0621996
-0.151161 -0.106571  0.263835
  0.261552 0.00507358  -0.262988
 -0.167183 -0.0761695   0.263713
0.261612 0.210752 0.263855
-0.023035  0.181968 -0.498429
-0.0724774   0.261817   0.263627
-0.261638  0.101157 -0.120991
-0.261352  0.116591  0.105904
 -0.156192   0.261754 -0.0246013
 0.124381 -0.137049  0.498587
-0.0100226   0.182701   0.263322
-0.261132  -0.16831  0.264081
-0.154634  0.261674 -0.263757
-0.0488182   0.261704   0.152374
0.0797996  0.261852  0.263487
-0.0514628    0.26173   0.151332
-0.0579067  -0.261564   0.145782
 0.261664 -0.261717 0.0439256
 -0.157873 -0.0941431   0.263806
  0.17162 0.0680614 -0.263188
-0.261273  0.144171  0.263935
 0.176238  0.056298 -0.498333
 0.261421 -0.261805  0.199652
 -0.261329 -0.0755864   0.137311
0.077366 0.261611 -0.13876
  -0.26132 -0.0862999   0.130302
-0.101505 -0.152807 -0.498412
 -0.261326 -0.0960897   0.124044
-0.119298 -0.140418  -0.26369
0.0375219  0.261597 -0.263208
 -0.150565  -0.261494 -0.0499609
0.00505108   0.261603  -0.158589
-0.127837 -0.132868  0.263826
-0.0980026   -0.26154   0.125429
-0.0609618  -0.261687  -0.263207
 -0.261321 -0.0823101   0.132756
 0.261567  -0.26149 -0.263424
-0.261278  0.261453  0.264042
-0.130007   -0.1312 -0.263687
-0.157642 -0.261504   0.26404
0.0755746  0.261627 -0.263341
  0.183589 -0.0304007  -0.498356
-0.125401  0.261543 0.0998286
0.0207075  -0.18207 -0.498379
-0.261528  0.261744 -0.194075
-0.261427 -0.135348 -0.083931
 0.108349 -0.150306 -0.498385
 0.179472 0.0370315  0.498536
 0.261611 -0.046467  0.150087
-0.26131 0.261457 0.233489
  0.152721  -0.155525 -0.0409926
-0.132069 -0.261515 0.0864238
0.0984647 -0.261684 -0.124264
-0.00228804    0.182884    0.263299
-0.141076  0.142022 0.0741691
 -0.183963 -0.0193608  -0.263309
 -0.142426  -0.142437 -0.0712602
 0.261856  0.261753 0.0974714
 -0.261425  -0.135869 -0.0827927
0.261807 0.261707  0.13132
-0.261331  0.261568  0.146949
 -0.141691   0.143013 -0.0739918
-0.139212 -0.122678  0.263829
-0.260791  -0.26141 -0.263936
0.0416582 -0.261687 -0.151516
  0.157706    0.26165 -0.0237111
 0.261736 0.0996849 -0.263338
-0.261636   -0.1317 -0.263559
 0.261605 -0.122425  0.263836
0.0758984  0.166028  0.498583
  0.261806    0.15765 -0.0258184
 0.261606 0.0231175 -0.157364
    0.183847 -0.000248931     0.263347
-0.183364  0.010203 -0.263252
-0.119149  0.138667  0.498587
 0.184077 0.0163375 -0.498351
-0.124981 -0.261561  0.263859
 0.116269  0.117467 -0.108331
0.0444915  0.261835  0.152643
-0.261484 -0.159995 -0.263645
-0.00674561   -0.183782    0.498554
0.0630783  0.261617 -0.145041
  0.162616 -0.0847741  -0.263219
0.191838   0.2616  0.26371
 -0.261317 -0.0891389   0.128484
 -0.10937 -0.261561 -0.112829
 0.261602 0.0839261 -0.132704
 0.261385  0.261408 -0.263469
0.00500828  -0.183916  -0.263035
-0.261521 -0.157624 0.0287873
 -0.14765 -0.261525  0.263991
   0.26171   0.142611 -0.0748021
-0.136586 -0.124766 -0.263696
-0.0763288   0.261816   0.263639
-0.0561316  -0.261621   0.263425
0.0890132  0.261601 -0.133687
0.0085482  0.261584 -0.263201
-0.0194016  -0.261667   -0.15662
 0.261846  0.157582 0.0279918
-0.261462 -0.261621 0.0781284
-0.0175983   0.182806  -0.498431
-0.261393 -0.178214 -0.263671
 0.261565 -0.261558 -0.199144
 -0.26162  0.120581 -0.102412
  0.17793 0.0462768  0.263373
-0.261281  0.152747  0.263952
 -0.184445 -0.0229097   0.263376
  0.26141 -0.261811  0.204701
0.0537609  0.176225 -0.263259
  0.261841   0.261661 -0.0737916
  0.261593 -0.0673233   0.142012
 0.137546 -0.122464  0.263797
 -0.261613 -0.0577414   -0.14566
-0.133158 -0.131804 0.0914778
 0.261574 -0.152333 0.0421074
 0.152142  0.102884 -0.263501
 0.261873  0.261751 0.0710829
-0.261309  0.261455  0.239952
  0.261692   0.125645 -0.0960104
 0.261712 0.0526504 -0.263104
  0.261751   0.149983 -0.0614907
  0.26185 0.0826252  0.263464
 0.261513 -0.139008 -0.076035
  0.176092 -0.0527276  -0.498358
 0.261713  0.261515 -0.126431
-0.261125 -0.261398 -0.263622
0.0861319  0.261629 -0.263361
 0.148114  0.108112 -0.498359
0.261845 0.261749 0.105667
0.261634 0.170295 0.263805
 0.11109 -0.14833 0.263694
 0.261682  -0.26171 0.0530175
-0.261366  -0.26157  0.136029
   0.16636 -0.0798579   0.498588
-0.261537  0.261731 -0.217577
 0.179907 0.0356172   0.49857
-0.0799932  -0.261631   0.263542
 0.164318 -0.261694 -0.263401
-0.0874642  -0.162225   0.263695
   0.15984  -0.160413 0.00777338
   0.2616 0.0726475 -0.141033
-0.261119 -0.261396 -0.263946
  0.261849   0.261666 -0.0358349
 0.261514 -0.261785  0.168802
 0.261582 -0.261669  -0.15703
-0.170163 0.0723471  0.263525
0.0636061  0.261619 -0.144831
0.0817772 -0.165242  0.498586
 0.129254  0.129767 0.0923088
  0.07178  -0.16897 -0.498391
-0.0403608  -0.261623   0.263352
-0.142377  0.117463  0.498591
 0.146472  -0.26165 0.0650377
-0.261798 0.0219832 -0.263212
    -0.156   0.154361 -0.0419142
0.0729663 -0.168937 -0.263308
-0.149026  0.261532 0.0574749
-0.261576  0.261826 -0.138937
-0.0362404   0.261818   0.263151
  0.158095   0.261651 -0.0215926
0.261673 0.261559 0.192998
  0.142712  -0.261781 -0.0675137
0.162126 0.261681 0.263663
0.0842553  0.162016  0.498576
-0.261694 0.0140271 -0.156457
 -0.14778 -0.261501 0.0622091
0.00663803  -0.183868  -0.263039
-0.113861   0.14501 -0.498369
0.00608711  -0.184048  -0.263056
 0.261396  0.261374 -0.263466
-0.261301  0.195439  0.264031
 -0.168845 -0.0727509   0.263697
-0.156433  0.261539  0.023945
-0.145377  0.113902   0.49859
 0.261574  -0.15957 0.0116247
-0.261219 -0.261468  0.174075
 0.261472  0.186429 -0.263543
  0.156003 -0.0975913  -0.498361
-0.0532973  -0.261568     0.1475
 0.261636  0.261449 -0.161855
 -0.14191 -0.142876 0.0709326
-0.261341  0.261509  0.143714
-0.261112 -0.208938  0.264287
  0.261835   0.261682 -0.0395155
0.122257 0.261716 0.100372
-0.156586  0.100768  0.498592
-0.261309  0.261525  0.181627
0.0548074 -0.174963 -0.263285
0.121013 0.136948 0.263659
 -0.159577 -0.0915875  -0.498342
 0.156703  0.261676 0.0364338
  0.185139 -0.0140089  -0.262976
 0.182525 0.0171321  0.263333
0.109426 0.261834 0.263553
-0.261412 -0.261611  0.108529
0.0660616  0.172707  -0.49838
-0.156308  0.261757 -0.018217
 0.261818 0.0551185   0.26337
 0.261585 -0.261546 -0.195836
-0.261807 0.0542336 -0.263236
 -0.261632   0.261904 -0.0834157
-0.114687  0.261747  0.263977
 0.155812 0.0961234  0.263648
 -0.177824 -0.0502149  -0.498265
-0.000710505     -0.26157     0.160297
   0.183309 0.000772484    0.263337
-0.0124425  -0.261667   -0.15705
 0.171212 0.0694854 -0.263187
 -0.261518  -0.158146 -0.0254477
 0.261604  0.107759 -0.114698
   0.261858    0.261705 -0.00869601
 0.226606 -0.261491 -0.263448
-0.261695 -0.107089 -0.263509
  0.171093 -0.0644387  -0.498358
 -0.261622   0.261921 -0.0750462
-0.126605 -0.132542 -0.498398
 0.261885  0.261747 0.0542639
0.0637164  0.261851  0.263393
 0.107972 -0.261692 -0.116204
-0.261645 -0.128318 -0.263548
0.0651103 -0.261805  -0.26324
    0.26163 -0.00716753   -0.262994
-0.126175  0.132515  0.498588
 0.125368 -0.261778 -0.263376
-0.261546  0.193897 -0.263841
 0.123904 -0.261792  0.263641
-0.152948  0.155357 0.0407768
 -0.139742   0.261817 -0.0792674
0.0751928 -0.261673 -0.138884
-0.139946   0.11974 -0.498352
-0.0645387    0.17308   0.498591
-0.132867  0.127197 -0.263861
 0.095697 -0.261675 -0.126803
   0.1564  0.261665 0.0371176
0.134318 0.124957 0.498481
  0.261746    0.15267 -0.0491987
-0.261546  0.261724 -0.263749
  0.185831 -0.0288307  -0.262994
 -0.178153 -0.0467765   0.498595
 0.261317 -0.261831  0.263812
 0.157282  0.156967 0.0266869
 0.128347 -0.132676  0.498598
-0.0783619    -0.1671  -0.498412
 0.133351 -0.133295 0.0896104
-0.261327 0.0555451  0.149502
-0.261324 0.0304831  0.263307
0.0043846  0.261823  0.158757
0.0127711 -0.261672  -0.15822
-0.136401  0.123581 -0.263852
 0.169685  0.261448 -0.263591
-0.0998069   0.261644   -0.26355
-0.0623273  -0.175287   0.498577
  0.26156  -0.26151 -0.263426
-0.0373321  -0.181457   0.263263
0.175605 0.261641 0.263687
 0.261582 -0.261667  -0.15438
 -0.139183   0.261816 -0.0801203
 0.261522 -0.163926  0.263866
-0.147394 -0.112788  0.498548
  0.261849   0.261674 -0.0474445
 0.116394 -0.261711 -0.106105
0.00356365  -0.261569   0.158423
-0.0322881   0.261553  -0.263281
0.0544729  0.176429  0.498588
 0.119241 -0.141382  0.498583
-0.261609 -0.132099 -0.263566
 -0.158499  -0.261439 -0.0250722
0.261812 0.119949 0.263667
-0.158884  0.092447  -0.49833
-0.0237731  -0.182981  -0.498388
 0.151887 -0.261724 -0.263381
-0.0501208   0.261567  -0.263312
 -0.261626   0.261926 -0.0961985
  0.261853   0.261661 -0.0765725
  0.159942  -0.160733 0.00584528
  0.21695  0.261402 -0.263529
 0.130131 -0.130521  0.498575
 -0.184552 -0.0186903   0.498598
-0.0275253   0.261809   0.263371
0.0458666 -0.177618 -0.263247
 0.261687 -0.261731  0.103737
 0.183869 0.0144596 -0.262992
-0.153757 -0.261509  0.264032
-0.153759  0.100226 -0.263867
 0.119155 -0.261655  0.102448
 -0.261296 0.00266145   0.263295
 -0.261283 -0.0161101   0.263299
-0.0403135    0.17928  -0.263341
    0.26159 -0.00418132   -0.156928
 0.152164 -0.261679 0.0423788
-0.261138 -0.261367 -0.263933
0.0189965 -0.182512 -0.263095
 0.261839  0.155648 0.0385604
  0.147415   0.261622 -0.0615733
  0.261843   0.261688 -0.0315576
-0.108599 -0.261562 -0.113259
 0.261721 0.0588828 -0.263127
-0.26131 0.261442 0.264037
  0.173329 -0.0590065   0.263716
-0.0338227  -0.182157  -0.498392
0.0202238 -0.181974  0.498565
0.261613 0.261309 0.263868
-0.0834055   0.261638  -0.134323
  0.261632 -0.0318129   -0.26301
-0.152673  0.101689 -0.263876
 0.121919  0.124433 0.0998859
0.0776821  0.261788  0.137866
 0.147608  0.261663 0.0583039
-0.144272 -0.117835 -0.498387
 0.145389  -0.26163 0.0661926
 -0.261473  -0.151804 -0.0507922
0.261636 0.261372 0.263551
 0.261412   0.21753 -0.263506
  -0.26128 -0.0213796   0.263111
 0.183468 0.0208049 -0.263016
-0.195708 -0.261392  0.264222
-0.0714251   0.169066    0.26365
-0.144188  0.144934 0.0693412
-0.154036  0.261543 0.0405366
 0.261532 -0.143496 0.0705034
 0.185071 -0.261831  0.263705
 0.26159  0.23334 0.263856
-0.0948198  -0.158559   0.263703
 0.134781  -0.26162 0.0825826
 0.261748  0.128739 0.0941552
0.204258 0.261414 -0.26353
0.134877 0.124361 0.498472
-0.111092 -0.145348 -0.498409
 0.261878  0.261749 0.0659501
-0.261155 -0.185238  0.264239
 0.261737 0.0875444  0.132271
-0.183107 0.0175976  0.498606
-0.0856922   0.162013   0.263673
 0.133566 -0.261807  0.263683
  0.261596  -0.261863 -0.0398447
-0.129009 -0.261504 0.0910503
 0.173024  0.067373 -0.498338
  0.26188  0.261737 0.0575154
-0.261508 -0.154139 0.0435684
 0.261576 0.0159759 -0.157825
-0.222175  0.261711 -0.263782
 0.261601 0.0794465 -0.135959
-0.261665 0.0192686 -0.156148
  0.26168  0.261482 -0.143045
-0.261407 -0.173424 -0.263662
-0.158151 -0.157787  0.026488
-0.178225 0.0417593  0.263452
-0.0951116  -0.158673   0.263718
-0.183621 0.0176067  0.263343
  0.158468    0.26166 -0.0156195
 0.26178 0.133521 0.263733
 -0.183346 -0.0223386  -0.263339
  -0.185757 -0.00382081    0.498618
-0.153612  0.100613  -0.26387
 0.157346 0.0941477   0.26363
 0.169177 -0.073604  0.498604
-0.0609534   0.261624  -0.146782
0.0650164  0.261851  0.263404
0.141481 0.116612 0.263681
-0.037044  0.261488 -0.263286
-0.0623671   0.261687    0.14724
-0.261337  0.261518  0.146374
0.0966273  0.155222   0.26354
 0.176473  0.261437 -0.263586
0.0754086 -0.261682  0.263557
 0.116883   0.26159 -0.107065
 0.200327  0.261414 -0.263555
  0.175379 -0.0535735   0.263635
-0.261299  0.261446  0.264055
 0.261427 -0.261799  0.196745
 -0.261325 -0.0613324    0.14622
0.0687155 -0.261656 -0.142748
 -0.159236 -0.0922205  -0.498345
   0.261612   -0.261768 0.000812316
  0.261855   0.261666 -0.0675543
0.261752 0.261682 0.146634
  0.261634 -0.0814703  -0.263144
 0.261576 -0.115902 -0.263359
 0.119766 -0.261796 -0.263378
-0.0310599   0.180756   0.498611
 0.184069 0.0179425 -0.498344
 0.075112 -0.167772 -0.263319
  0.26162  0.261456 -0.163575
 -0.26156 -0.261626 0.0668197
 0.107456 -0.148488  0.498591
 0.180535  -0.03784 -0.498351
-0.165749 -0.078612 -0.498299
-0.0713712   0.261626  -0.263372
 -0.159709 -0.0966466   0.498557
  0.261644 -0.0777202  -0.263137
-0.261594 -0.261571 0.0324758
  0.261588  -0.261879 -0.0615496
  0.261627 -0.0983523   0.263726
0.00803282   0.183265  -0.498414
-0.261798 0.0212771 -0.263212
0.165692 0.261672 0.263673
 0.261305 -0.261829  0.263824
-0.0925905  -0.261613    0.26364
0.00379775  -0.261476   0.263267
 0.261861 0.0909218  0.263508
0.193106  0.26142 -0.26357
 -0.261631   0.261915 -0.0640751
-0.105231 -0.261704 -0.263487
0.0926044 -0.261661  0.128279
    0.261697 -0.000817677     0.158764
 -0.177425 -0.0499273   0.498536
 0.090063  0.159379 -0.263408
 0.261599 -0.129533  0.263868
-0.145713  0.112496  -0.49834
0.0515615 -0.261794 -0.263208
-0.261365 -0.261571   0.13543
 -0.261574   0.261843 -0.0361354
0.0570632   0.26181  0.149214
  0.14733 -0.107758  0.498609
 -0.154048   0.261802 -0.0404989
 0.261578  -0.26181 -0.118682
 0.261556 -0.261498 -0.263447
-0.261048 -0.261328   0.26445
  0.261712   0.136335 -0.0819593
  -0.2618 0.0269916 -0.263232
  0.158393   0.261656 -0.0189118
  0.261699   0.127812 -0.0935098
0.0569132  0.175485 -0.263269
-0.0970206  -0.261589  -0.123701
0.0437731  0.178794 -0.498404
  0.183004 0.00465726   0.498596
-0.261805 0.0873951 -0.263493
 0.261413 -0.261812  0.201966
0.0647716   0.26162 -0.144379
  0.174904 -0.0579161   0.498621
  0.261737 0.00958702   0.263333
 0.261548 -0.203751 -0.263437
-0.0832281   0.163401  -0.498403
-0.103865  0.106578  0.118266
-0.0946312   -0.15876   0.263713
0.0854755 -0.162455 -0.498392
  -0.16458 -0.0831269  -0.263517
 0.261551 -0.150429 0.0472189
-0.204359 -0.261332  0.264255
 -0.138842   0.139824 -0.0790453
-0.261293  0.191223  0.264034
-0.0869702   -0.16246   0.263685
-0.261307 -0.261541  0.145894
 0.142305  0.261663 0.0693719
 0.144107  0.145639 0.0647591
-0.0620806  -0.261692  -0.263208
 0.261849  0.158178 0.0148567
-0.261794 0.0258289 -0.263123
 -0.174283 -0.0598402   0.498573
-0.261294  0.126722   0.26389
-0.175398 -0.058402  0.263574
 -0.175943 -0.0567547  -0.263403
0.0204721  0.183032 -0.498408
-0.261425 -0.138619 0.0785401
-0.261394  0.132842  0.087032
 -0.261315 -0.0812669   0.133724
-0.131458  0.261667 -0.263702
 0.142532   -0.1435 0.0702545
-0.261567  0.209561 -0.263806
0.261808 0.124949 0.263717
0.120661 0.261821 0.263581
-0.0321753  -0.261693  -0.263091
-0.0119169   -0.26166  -0.157708
   0.160436   -0.160503 -0.00143543
 0.261863  0.261754 0.0885353
   0.18442 -0.0233078  -0.498357
 -0.184463 -0.0234087   0.263353
  0.15632  -0.26171 -0.263382
 0.261552 -0.224061 -0.263449
  0.164072 -0.0816585  -0.263193
 -0.131055  -0.130988 -0.0925147
  0.158653   0.261631 -0.0153627
 0.118963 -0.261754  0.263662
 0.261591 -0.133302  0.263873
  -0.261564    0.261783 -0.00781955
 0.160586 0.0902635 -0.498344
-0.182333 0.0203006  -0.26338
 0.261499 -0.106585  0.118543
 -0.261513  -0.157257 -0.0307366
 -0.261546   0.261757 0.00286057
 0.157167  0.261677 0.0361231
0.0390725 -0.179311  0.498561
 0.121094 -0.139927  0.498585
 0.261336 -0.220693  0.263841
  0.261565 -0.0725799  -0.139237
  0.183215 -0.0318566  -0.498355
0.0819186  0.165114  0.263469
  0.157626   0.160234 -0.0209133
-0.261817 0.0547088 -0.263311
 0.152016 -0.261827  0.263688
-0.261098 -0.261366  0.215747
-0.0304503  -0.182456  -0.498401
-0.149725 -0.111956   0.49855
  0.13518 -0.261769 -0.079521
 0.156215  0.261676 0.0384037
0.0681285  0.172506 -0.498398
0.0149762  0.261831  0.158171
-0.261284  0.129237  0.263899
 -0.135275  -0.136036 -0.0847013
-0.211556 -0.261425 -0.263915
-0.261172 -0.112675  0.263746
  0.261628 -0.0908271  -0.263225
 -0.185606 -0.0113111   0.498616
-0.0747449   0.168121   0.498586
-0.159105 -0.157833 -0.026705
  0.162355 -0.0851751  -0.263224
 0.151743 -0.151253 0.0492104
-0.261467  0.261801 -0.153225
 0.218575  0.261408 -0.263512
-0.261269  0.261434  0.264055
-0.261316  0.261548  0.165572
   -0.261554     0.261769 -0.000272341
 0.261408  0.220304 -0.263507
0.117146 0.120654 0.104621
  0.26176  0.130056 0.0924321
 0.147605  0.108701 -0.263468
 0.261851 0.0654286  0.263446
  0.26141  0.261414 -0.215427
-0.261297  0.129054  0.263913
 -0.261633  -0.261519 -0.0314154
-0.0632754   0.261628   -0.14599
-0.0888699  -0.161628  -0.498413
 -0.184506 -0.0114547   0.263345
  0.261809   0.261672 -0.0546057
0.145395 0.261523 -0.26359
-0.215969  -0.26137  0.264304
0.094699 0.156599 0.263552
-0.0805803  -0.261601  -0.138172
0.0166026 -0.184423  0.263269
-0.261661 0.0666292 -0.145087
-0.0702475  -0.261697  -0.263279
 0.261329  0.261385 -0.263507
-0.109575   0.14869 -0.263771
 -0.261734 -0.0777992  -0.263406
 -0.17743 -0.049452  0.498588
  0.150925   0.261635 -0.0526545
0.00256767  -0.261571    0.26327
 0.110868  0.261591 -0.113464
  -0.184217 -0.00717115    0.263342
  0.159827  -0.261705 0.00246577
0.0466926  0.261617    -0.152
 0.261583 -0.044776 -0.151229
 0.261634 0.0015243  -0.26298
 0.261607 -0.050255  0.149237
 0.261414  0.211037 -0.263528
   0.261636 0.000745306   -0.262991
-0.0369878  -0.181608  -0.498407
 0.182352 0.0350327 -0.263016
 0.141342  0.142002 0.0721094
0.00772133   -0.26173  -0.263055
-0.261527 -0.157877 0.0250639
  0.26161 0.0900022 -0.128006
 0.261382  0.261399 -0.263482
-0.261679 -0.028467 -0.155091
0.0649502  -0.17153  0.263502
-0.199792 -0.261452 -0.263893
0.202717 0.261567 0.263721
 0.161901 -0.086362 -0.263223
0.0673586 -0.261675 -0.143267
 0.182317 0.0211484  0.263362
-0.198047  0.261657 -0.263825
-0.109292  0.261655 -0.263596
-0.0807297  -0.166723   0.498566
 0.261523 -0.181924 -0.263453
 -0.140477  -0.141266 -0.0750302
-0.261067 -0.261335  0.264443
 0.186281 -0.261822  0.263723
 0.261701   0.26156 -0.110106
-0.105034  0.151755   -0.2637
 0.227254  0.261408 -0.263481
0.0692538  0.171798   -0.4984
  0.153383  -0.157344 -0.0386035
-0.0724987   -0.16915   0.263665
-0.127084 -0.261558  0.263891
0.0265861 -0.182778  0.263403
 0.135063 -0.135498 0.0865917
-0.182404  -0.26142  0.264148
  0.142226   0.261617 -0.0728289
 0.261601  -0.10169 -0.263302
0.0715596 -0.169468 -0.263307
 0.261602 0.0200757 -0.157591
 -0.261492   0.157461 0.00273482
  0.135476   0.132226 -0.0856929
-0.261551  0.200106 -0.263827
 0.261865  0.261754 0.0807939
  0.261609  -0.261796 -0.0045725
  0.184084 -0.0188456   0.498612
0.0767453  0.261634 -0.263348
0.00284928  -0.184083  -0.263035
-0.152296  0.154497 0.0441481
0.019892  -0.2616 0.263269
-0.214486 -0.261412 -0.263911
-0.261311   0.26153  0.176266
-0.0352074   0.180943    0.26351
-0.059708 -0.261642 -0.145917
 0.261364 -0.207676   0.26385
 -0.184266 -0.0152947  -0.263316
-0.261169 -0.151127  0.263951
 0.117102  0.261579 -0.107321
 -0.261662 -0.0340084  -0.153959
-0.0575384  -0.261565   0.145956
   0.261632 -0.00941709   -0.262991
-0.0847435   -0.16273  -0.263452
 0.261734  0.100817 -0.263344
-0.261662 0.0662605 -0.145207
  0.261579 -0.0506717  -0.149322
-0.261462  0.261603 0.0964821
0.0980301  0.154894 -0.263438
 0.261676  0.147618 -0.263521
-0.077743 -0.261632  0.263542
   0.18453 -0.0214643  -0.498355
-0.178003   0.26147   0.26406
 -0.22067 -0.261336  0.264314
-0.062815 -0.173117  0.263629
-0.261305  0.261535  0.173898
 0.261668  0.261484 -0.143386
   0.26163 -0.0316461    0.15322
0.140298 0.118022 0.263673
 0.261678  0.121727 -0.100368
0.0563411 -0.261665   0.26345
0.261613 0.261323 0.263872
0.00347159  -0.184124   0.498559
-0.0385381  -0.180761   0.498575
  0.151364  -0.261777 -0.0458552
0.261745   0.0547 0.147889
-0.261151 -0.261364 -0.263941
 0.261553 -0.159597 0.0122648
-0.0697168  -0.261629   0.263492
-0.261405 -0.261605  0.113195
0.00422218   0.261816   0.158618
0.0982844 -0.154714  0.498583
-0.142233  0.117625   0.49859
-0.0779967   0.261641  -0.137266
 -0.26129 -0.261404 -0.200292
  0.261626 -0.0297554  -0.262903
0.261845  0.26175 0.107331
 0.261582 -0.261668 -0.153389
 0.261541 -0.149706 0.0513217
  0.261492 -0.0926169  -0.126557
 0.261672 0.0294684 -0.263024
-0.0620546   0.261713   0.146622
-0.261492  0.261671 0.0460454
0.0266396 -0.181646 -0.498381
 -0.158051  -0.261433 0.00172842
0.0507167   0.26181  0.151265
-0.261309  0.261282  0.264045
 0.261741 0.0539398  0.148187
 -0.153335   0.261815 -0.0443039
-0.0280918   0.261578  -0.263254
 0.174857 0.0592826  -0.26316
  -0.261528   -0.158136 -0.00153983
 0.261681 -0.261706 0.0508628
 0.261547 -0.149918 0.0498504
  0.160024    -0.2617 0.00265462
-0.261563  -0.26159 0.0485156
-0.0661393  -0.173866   0.498575
-0.126444  -0.26151 0.0945719
0.261394  0.26141 -0.26315
0.0734916   0.17035  0.263423
-0.000942347     0.261825     0.263286
-0.176141  0.261431  0.264059
 0.140824 -0.141951 0.0756876
  -0.2074  0.261701 -0.263812
-0.036832  0.180092 -0.498438
 0.261497 -0.125698 0.0962071
-0.0595132   0.261613  -0.263337
 0.180465 0.0325099  0.263354
 -0.156229   0.261772 -0.0199382
0.0695541  0.171958 -0.498395
 -0.183962 -0.0137457  -0.498269
 -0.139432   0.261819 -0.0796033
-0.0513607   0.261823   0.263483
-0.0613241   0.261624  -0.146763
 -0.261521  -0.158188 -0.0244458
0.261721 0.261634 0.166456
  0.261639 -0.0574431   0.263425
0.0933165  0.157214  0.498556
-0.261148 -0.261392 -0.263918
  -0.214 0.261452  0.26406
0.154147 0.101224 0.498466
-0.158429 -0.261447 -0.024753
-0.0321067   0.181539   0.263423
0.117604 0.261735 0.105367
 0.108979 -0.261762  0.263585
   0.26158  -0.159991 0.00373746
-0.261296  0.132419  0.263905
-0.261671 0.0489142  -0.14947
 -0.18697 -0.261406  0.264185
-0.261537  0.261717 -0.206784
0.261513 -0.10086 0.124758
-0.144427 -0.261499 0.0672336
 0.027917 -0.261742 -0.263111
0.0772298 -0.261673 -0.137642
  0.157504 -0.0950877  -0.498357
 0.261319 -0.261827  0.263824
 0.126698  0.134383 -0.498357
-0.0871054  -0.162904  -0.498414
  0.261625 -0.0277016  -0.263005
 -0.261515  -0.157794 -0.0295593
0.113776 0.143044 0.263633
 -0.261651 -0.0386029   -0.15325
-0.261701 -0.101269 -0.263486
 0.261548 -0.215102  -0.26345
  0.175715 -0.0552594   0.498623
 0.26168 0.261558 0.190684
  0.26158 -0.109116 -0.263332
 -0.261405  -0.130032 -0.0940446
-0.261445  0.261603 0.0913727
-0.105039 -0.261594  0.263743
-0.261511 -0.261621 0.0797104
 0.261721   0.10901 -0.263393
-0.261533  0.261737 -0.201754
0.184066 0.261604   0.2637
-0.154458 0.0988751 -0.263896
-0.261428  -0.13574 0.0831034
-0.261323  0.104014   0.11876
0.0424693 -0.178504  0.263418
 0.118991 -0.261658  0.102574
  0.152357  -0.261791 -0.0408311
-0.0248055  -0.182691   0.263228
 -0.26111 -0.261412  0.201584
-0.106099  0.151123  0.263881
-0.0663321   0.261682   0.145514
-0.182621 0.0310622 -0.498283
-0.147302  -0.11235  0.263854
-0.261309  0.261553  0.160317
0.0363607 -0.179576  0.498575
  -0.261525    0.261749 0.000907188
  0.261548 -0.0930558   0.129357
-0.0842224   0.162712  -0.498404
-0.0356659   0.180453  -0.498438
-0.0714862  -0.170557  -0.498412
-0.261378  0.129806 0.0922619
-0.261617 -0.261546 -0.134776
  0.261646 -0.0663945  -0.263105
-0.0707889    0.26181   0.263423
-0.0618092   -0.17547   0.498577
0.0662122  0.261818  0.144205
  -0.261287 -0.00980024    0.263286
 0.261674 -0.261698 0.0540282
-0.182145 0.0264716  0.263415
0.00781504  -0.261575   0.263241
0.0886744  0.161762  0.263555
0.0730985    0.2618  0.140425
-0.261481  0.261409 0.0590671
-0.0399027  -0.261661  -0.151777
-0.182226  -0.26136  0.264149
-0.261158  -0.26139 -0.263901
  0.261596  -0.261847 -0.0422823
-0.063751  0.174031  0.498587
  0.10628 -0.261675 -0.118145
 0.261673  0.261483 -0.144604
-0.119571  0.261779 -0.105746
-0.261209 -0.261385 -0.221698
0.114458 0.142577 0.263626
  0.261709   0.131174 -0.0892545
 0.183994 0.0190818 -0.498336
-0.261434 -0.113153 -0.113037
0.0468051  0.177713 -0.263257
  0.261768   0.158252 -0.0219838
 0.133041 -0.133951 0.0884258
-0.183784 0.0147373   0.26334
-0.139501  0.139949 0.0767342
 0.182102   0.26143 -0.263584
 -0.261223 -0.0783874   0.263608
-0.155035  -0.15572 0.0386063
 0.261577 -0.261806 -0.123195
  0.182136 -0.0368707  -0.498359
-0.181719 0.0279618   0.26343
-0.0545986  -0.261692  -0.263162
-0.0838731  -0.261697  -0.263366
0.0336921 -0.180259  -0.26313
 -0.162963 -0.0850638  -0.498317
 -0.126923    0.26179 -0.0964601
-0.0472931   0.179055   0.498608
0.218739 0.261408 -0.26349
-0.144102 -0.117387  0.263841
  0.13882 -0.138288 -0.076091
   0.13781  -0.136851 -0.0777993
0.118535 0.261723 0.104199
 0.261569 -0.261785 -0.127597
   -0.149  0.261532 0.0575347
 0.261726 0.0588089  0.146179
-0.114719 -0.145227 -0.263683
0.0421847 -0.261635  0.152158
-0.154303  0.154419 0.0428871
-0.101273  -0.15445  0.263752
0.142099 0.115819 0.263668
  0.13806 -0.122251 -0.263438
 -0.150122   0.261818 -0.0573411
 0.261312 -0.261835  0.263816
 0.261591 -0.261848 -0.055714
-0.145345  0.113931  0.498589
-0.230787 -0.261343  0.264373
-0.176092  -0.26139  0.264116
  0.26169 -0.261717 0.0558998
0.0842746 -0.162093  0.263585
 0.261539 -0.261769  0.155748
-0.085636  0.162164 -0.263598
-0.143123  0.261672 -0.263758
0.0230692  -0.18192 -0.498386
 0.146622 -0.261826  0.263694
 0.261698 -0.261725 0.0796919
0.261733 0.107462  -0.2634
 -0.135696  -0.136548 -0.0841573
-0.0984175   0.154247  -0.498385
-0.261234 -0.261489  0.168524
-0.261388 -0.261589  0.118879
0.0234166  0.182967  0.263294
-0.103335 -0.261599  0.263735
0.0513503 -0.261685 -0.148336
 0.156724  0.261675 0.0362381
  0.26172 0.0615964  0.144904
 0.143452 -0.261653  0.070121
-0.149431  0.261537 0.0581991
 0.261869   0.26175 0.0793854
 0.125571 -0.261661 0.0941125
-0.261593 -0.261518 -0.143757
-0.153186  0.261815 -0.044378
   0.15987  -0.261694 0.00185902
0.00273373     -0.184  -0.263034
 -0.261431  -0.137653 -0.0792765
 0.171423  0.068588 -0.263147
 0.261581 -0.261643 -0.162204
 0.176865 0.0537137 -0.498334
-0.261433 -0.261619  0.101762
 -0.158461  -0.261459 -0.0257344
   0.18337 -0.0161878   0.263354
0.0130705 -0.261672  -0.15822
-0.153416 -0.101848  0.263834
-0.0210047  -0.261667  -0.156859
-0.0504679   0.178467   0.498605
-0.0832518   0.163074   0.263717
-0.134428  0.261636  0.264013
-0.156682  0.261598 0.0221546
 -0.261631  -0.261534 -0.0670972
 0.198046 -0.261832  0.263727
-0.106096 -0.261567 -0.115674
  0.177025 -0.0476187   0.263433
 0.261652 0.0181396 -0.263008
 0.050035  0.261611 -0.150599
-0.130085  0.128929  0.498588
 -0.261509  -0.156518 -0.0333031
  0.154873  -0.159336 -0.0339534
   0.12981   0.126407 -0.0944277
  0.261849   0.261663 -0.0698816
 -0.261679 -0.0277405  -0.155266
0.0897755  0.159633 -0.263414
  -0.185814 -0.00559649    0.498617
-0.0628853    0.26182   0.263548
-0.261298 0.0215078  0.263321
-0.261275 -0.261402 -0.203033
-0.261236 -0.206133 -0.263799
 0.108951 -0.261802 -0.263368
-0.163632  0.085343  0.498594
-0.0606042   0.175381   0.498591
-0.00605632    -0.26157    0.158009
  0.141171   0.138614 -0.0751253
-0.00557743    -0.26171   -0.263053
-0.11873 0.261724 0.263992
-0.11022 0.147718 0.263939
  0.261627 -0.0120712  -0.262962
-0.137641 -0.124507  0.498533
-0.226682  0.261717 -0.263466
 0.261757 0.0601552  0.145566
0.176328 0.261647 0.263678
 -0.16034 -0.261485  0.264048
0.0521152 -0.176771  0.498568
0.0656164 -0.261683  0.263526
0.0353741 -0.180055 -0.263122
 0.261599 0.0472653 -0.150927
 -0.175603 -0.0584313  -0.498278
-0.261305  0.261493  0.200353
  0.26159 -0.010926 -0.156542
 0.178632 0.0405564  0.263364
-0.261147  -0.19978  0.264266
 -0.261634 -0.0415306  -0.151751
-0.142567  0.142997 0.0722513
-0.0523506   0.261719    0.15112
-0.0841054   0.163524   0.498583
-0.153843  0.153675 0.0463733
-0.0956151  -0.261696  -0.263352
 -0.157285 -0.0958696  -0.498361
-0.0883671   0.261642    0.13056
-0.0155716   0.182717   0.263328
-0.103839  0.152107  0.498584
-0.216635 -0.261367  0.264309
 -0.261606   0.261853 -0.0364825
-0.118759  0.141702 -0.498374
0.261381 0.261407 -0.26347
0.146596 0.261734 0.263641
 0.119966 -0.261741 -0.263375
 0.170178 -0.261673 -0.263394
-0.261461 -0.139201 0.0774677
 -0.261278 -0.0270926   0.263342
 -0.261695 -0.0109291  -0.155824
 0.261748 0.0525236  0.148545
  0.179472 -0.0358038   0.263365
-0.0614842   0.261715   0.146678
-0.261668 0.0357317 -0.152301
 0.261601 0.0231744 -0.157403
 -0.165379 -0.0807022   0.263774
 0.261495 -0.112691  0.112373
-0.261309  0.215273  0.264039
  0.176785 -0.0504754  -0.263065
  0.157648   0.160297 -0.0210518
  0.183114 -0.0341351  -0.498358
 0.261455  0.261431 -0.191415
  0.261836   0.261687 -0.0358997
-0.261395 -0.261602  0.117066
 0.261576 -0.138502  0.263871
-0.156758  0.261612 0.0205493
0.00819261   0.183277  -0.498415
 0.261565 -0.261756  0.141456
0.00619028   0.182952   0.263292
 0.261496 -0.139267 0.0781852
0.0827456 -0.163653 -0.498387
   0.142 0.116186 -0.49836
-0.261338 0.0258702  0.156193
-0.126644  -0.26156  0.263877
-0.000934486     0.183466    -0.498422
 0.116639 -0.261663  0.105494
 -0.156349  -0.261449 -0.0344118
0.00888174   0.183771   0.498613
0.115928 0.117079 -0.10841
 0.08897 0.159666 0.498569
 0.261609 0.0813056 -0.134474
-0.261476   0.15753  0.013738
 0.261605 -0.107475 -0.263318
  -0.18031 -0.0414488  -0.263362
-0.0124118   0.261567  -0.263246
   0.158485   -0.261743 -0.00828348
0.261653 0.261456 0.212226
-0.0221336   0.182949  -0.263283
-0.261322 0.0498523  0.263404
-0.261402  0.261788 -0.160417
-0.261303  0.214735  0.264047
-0.142123  0.261666 -0.263747
 -0.261635  -0.261519 -0.0320887
-0.168331 0.0715376 -0.498311
0.0868264 -0.161618 -0.263336
 0.146759 -0.261644 0.0628114
 0.261864  0.261753 0.0813441
0.0546876  -0.17619 -0.498396
 -0.261645  -0.261571 -0.0960981
  0.261598 0.00747006   -0.15746
-0.144859  0.145307 0.0681358
 -0.26147 -0.261458 -0.166593
 0.261807 0.0463392  0.263369
0.146673  0.26174 0.263641
-0.127574 -0.261512 0.0930792
  0.26141  0.261414 -0.214993
-0.0743214   0.261811   0.263604
  0.261702   0.127559 -0.0937816
 0.166527  0.261453 -0.263592
  0.261535 -0.0744055  -0.138358
 0.126598  0.261567 -0.263602
-0.103037 -0.153367  0.263762
    0.26159   -0.261806 -0.00736463
-0.261381  0.128227 0.0937249
 -0.261625   0.261905 -0.0554564
   0.1748 0.0617099 -0.498341
0.261461 -0.18419 0.263868
-0.154152 0.0995561 -0.263867
-0.0321521   0.181194  -0.498428
-0.261818 0.0610374 -0.263343
0.0693797  0.261635  -0.26334
0.00167681  -0.261569   0.158544
-0.152187  0.103632 -0.498344
-0.261568 -0.061688 -0.144017
  0.184645 -0.0179213  -0.498346
0.0961193 -0.261732  0.263623
 0.013555   0.26161 -0.158134
-0.261188 -0.117772  0.263775
-0.127325  0.132375  0.263951
-0.261813 0.0531143 -0.263295
-0.177434 0.0447759  0.263469
-0.261802 0.0745055 -0.263373
-0.261147 -0.195746  0.264257
-0.0050276  -0.261716   -0.26304
 -0.261322 -0.0797433   0.134514
-0.261377 -0.261578  0.131101
  0.261572  -0.158334 -0.0302172
-0.137748 -0.123873  0.498551
-0.0953282  -0.261544   0.126888
 0.261316 -0.261834  0.263798
-0.0728051  -0.170629   0.498574
 0.130915 -0.261776  -0.26338
-0.156514 -0.157393 0.0335062
 0.174231 0.0636968 -0.498337
-0.139298  0.120852 -0.263879
 0.261767  0.261531 -0.115635
0.0893153 -0.160065  0.498585
-0.0708198   0.169356   0.263612
-0.261586 -0.261578 0.0398502
 -0.155996   0.155259 -0.0349741
0.261563 0.261103 0.263851
-0.0998487  -0.261602   0.263695
-0.156314  0.261772 -0.018881
-0.260882 -0.261177  0.264392
   0.184959 -0.00890785   -0.262975
0.0339549 -0.180928  0.263413
 0.182575 0.0210521  0.498596
0.261445  -0.1899 0.263867
 -0.261675 -0.0268054  -0.155226
-0.107602 -0.148574  -0.49839
 -0.157962  -0.158246 -0.0327171
0.0475289  0.177457 -0.263256
-0.0158039   0.184079  -0.263277
  0.261822    0.26169 -0.0283976
 -0.261637   0.261931 -0.0831965
 -0.170625 -0.0703056  -0.498306
 0.149195 -0.261658 0.0552085
 -0.13302 -0.128773  0.498549
0.261617 0.260991 0.263867
-0.235144  0.261714 -0.263778
-0.0955124  -0.158566   0.263708
-0.185098 -0.013263  0.498612
 -0.178841 -0.0487294   0.263502
-0.104652  0.261691 -0.121149
0.224246 0.261469 0.263804
0.0965839  0.261854  0.263534
 0.024775 -0.181792 -0.263095
-0.184568  0.261461  0.264065
-0.156237  0.159518 0.0094471
-0.141554  0.143016  -0.07409
 0.261377  0.261395 -0.263489
 -0.261483  -0.153101 -0.0475549
 -0.158342  -0.261466 -0.0261737
-0.0274828   0.261822   0.263367
-0.261149 -0.180045  0.264186
-0.178876 -0.261434  0.264152
-0.125515  0.133098  0.498588
0.0152154 -0.261543  0.263282
-0.00484663    0.183035    0.263314
  0.261626 -0.0330422   0.152907
0.261552 -0.26177 0.151831
 0.108466 -0.148648 -0.263459
 0.261733 0.0797145 -0.263171
-0.0457656  -0.261688  -0.263095
  0.183827 -0.0302289  -0.498358
-0.261644 0.0688735 -0.143834
0.194845 0.261585 0.263717
 0.223117  0.261408 -0.263485
 0.139884  0.119773 -0.498357
  0.261635 -0.0265001   0.154275
 0.139851  0.261658 0.0745204
0.188153 -0.26183 0.263674
 0.261653  0.261467 -0.154101
-0.225003 -0.261349   0.26434
 -0.2613 0.100478 0.121761
0.0738051  0.169621 -0.498368
 0.218885  0.261399 -0.263529
 0.140902 -0.261762 -0.071254
 0.261875   0.26175 0.0702071
-0.261285   0.18334  0.264028
-0.261548  0.261788 -0.164654
 0.139696 -0.140964 0.0765452
0.0330594 -0.261639  0.263325
0.00656883   0.184051   0.498619
-0.261316  0.120381  0.263872
-0.26144 0.153675 0.049813
 0.261496 -0.117826 -0.106549
-0.0809526   0.164428  -0.498413
-0.014999  0.261544 -0.263246
-0.050609  0.178392  0.498598
 0.165769  0.081726 -0.498344
 -0.173662 -0.0638892  -0.498297
 0.261531 -0.143896 0.0692847
 0.159621 -0.261827    0.2637
-0.261286  0.261587  0.122453
 -0.15767 -0.157725 0.0283193
-0.0542153   0.261575  -0.263322
-0.128596 -0.261553  0.263854
-0.0886935   -0.26155   0.130239
 0.153964 0.0998819 -0.498351
  0.136517   0.261613 -0.0820617
 0.113376 -0.261789 -0.263375
-0.104966  0.152026 -0.263692
-0.147615  0.148048 0.0641285
  0.261556 -0.0930237   0.129556
-0.148657  0.149401 0.0613296
-0.261283  0.178233  0.264015
-0.0535988   0.175093  -0.498433
  0.15088 -0.103018  0.498612
-0.153651  0.261561 0.0381398
-0.261585 -0.261583 0.0422661
 0.261725  0.125885 -0.263474
0.0799801  0.261857  0.263498
 0.261757 0.0545858  0.147762
-0.261555  0.261806 -0.152522
  0.261802   0.156836 -0.0299634
0.158575  0.26164 0.263663
 0.155904 0.0975464 -0.498338
   0.1542 -0.154553 0.0410473
0.261853 0.261727 0.093448
  0.17523 0.0515828  0.498536
 -0.154917   0.153551 -0.0494284
-0.261359 0.0782483  0.263609
 -0.176392 -0.0559854  -0.498276
-0.0855366   0.261637   0.132945
-0.156425  0.261563 0.0245684
  0.147405  -0.149402 -0.0552468
  0.261774   0.158739 -0.0195927
 0.261543 -0.187173 -0.263325
   0.15336  -0.261783 -0.0364155
-0.165061 0.0784634 -0.263672
0.00485588  -0.184136   0.498547
-0.156891  0.261582 0.0199231
0.261641 0.178458 0.263827
 -0.183904 -0.0139297  -0.498271
-0.119012 -0.117043 -0.107031
-0.261339 0.0273182  0.155816
  -0.18542 -0.0118249   0.498614
-0.261585  0.190811 -0.263839
-0.207592  0.261701 -0.263806
-0.261595 -0.261536 0.0131667
 0.172087 0.0692341 -0.498299
-0.150333  0.261542  0.054022
-0.261686  0.015617 -0.156605
  0.172132 -0.0617267   0.263705
-0.261536  0.261754 -0.179132
 -0.142376  -0.142506 -0.0713559
0.105635 0.261848 0.263543
 0.109579  0.261598 -0.263481
-0.261315  0.261552  0.160957
-0.131594 -0.129005 0.0944771
 -0.135028   0.261786 -0.0865852
-0.261325 0.0458505  0.263384
 -0.147881  -0.261511 -0.0570227
-0.261555  0.261796 -0.155685
 0.261473  0.261434 -0.188431
0.0490496 -0.177759  -0.49839
 0.146897 -0.261743  -0.26339
-0.176481 0.0561482 -0.263437
-0.00933579   -0.183327    0.263236
  -0.2618 0.0254256 -0.263226
  0.261604  -0.261829 -0.0157806
-0.158057 -0.261433 0.0017755
  0.26156 -0.151083 0.0451621
   0.26163 -0.0163436  -0.262993
-0.260783 -0.261407 -0.263934
-0.177805 0.0450222  0.498613
  0.183963 -0.0187646   0.498612
 0.152484 -0.100784  0.498613
  0.261592  -0.261862 -0.0518037
-0.125305 -0.261522 0.0956973
-0.0236157  -0.261581   0.263309
0.0581693  0.261826  0.148551
-0.261171 -0.154689  0.263962
 -0.183721 -0.0193892  -0.263333
 0.261565   -0.2615 -0.263435
 -0.261333 -0.0519243   0.150378
 -0.138098   -0.26152 -0.0812013
-0.261339  0.020367  0.157354
 0.169507 0.0732842 -0.263257
-0.261152 -0.261391 -0.263924
 0.126523 -0.134985  0.498595
-0.261426 -0.135623 0.0837431
  0.261572  -0.159912 0.00988977
-0.261144  -0.21108  0.264279
-0.035443 -0.261614   0.26335
-0.261621  0.261921 -0.108041
-0.0963658  -0.261533    0.12623
 -0.261276 -0.0332145   0.263396
-0.053714  0.175021 -0.498434
-0.190085  0.261442  0.264063
-0.261246 -0.261391   -0.2088
  0.180936 -0.0387944  -0.263044
  0.261855   0.261668 -0.0625154
-0.261278  0.187441  0.264028
  0.155334  -0.159449 -0.0319397
 -0.12782 -0.261512  0.092889
0.0690487 -0.169963  0.263552
0.0892607  0.160192   0.26349
-0.121883  0.137085 -0.263807
 0.149424  0.261627 -0.057262
0.261726 0.261636 0.164993
0.00397604   0.261826   0.263277
-0.261462 -0.125559  -0.26355
 0.261544 -0.171852 -0.263403
0.0658851 -0.171624   0.49858
-0.261299  0.261509  0.197712
  0.19722  0.261421 -0.263529
  0.261642 -0.0780242  -0.263152
  0.261688   0.128759 -0.0921897
-0.0151054  -0.261576    0.26327
 -0.184322 -0.0241162   0.263415
0.0723961 -0.261807 -0.263256
0.0446592  0.178445 -0.498403
-0.158518 0.0933922 -0.498336
-0.128017  0.131577  0.263945
 -0.184575 -0.0222006   0.263365
-0.261534  0.261759 -0.182969
0.0464703 -0.178592  -0.49839
   -0.261333 -0.000308376     0.161035
-0.0285442   -0.18254  -0.263066
  -0.261289 -0.00708882      0.2633
-0.261688 -0.110972 -0.263519
-0.0754394   0.166825  -0.263512
 -0.261331 -0.0555318   0.149259
 0.114829  0.144869 -0.498383
  0.261593  -0.261872 -0.0506507
0.106338 0.109039 0.115246
 0.261621 -0.261692 0.0169385
0.0283917 -0.180764  0.498571
  0.261693   0.126979 -0.0945925
  0.163637 -0.0825568  -0.263202
 0.261547 -0.261519 -0.225986
-0.261432 -0.261619  0.101617
  0.26154 -0.261477 -0.263451
 0.261732 0.0977347  0.125652
 0.131773 -0.261626 0.0866675
 0.261855 0.0728523  0.263457
0.117574 0.261731 0.105341
0.0440641  0.178327 -0.263244
-0.261609  0.261915 -0.114721
0.0062913  0.184081  0.498615
  0.261686 -0.0156802   0.263343
 0.183907 0.0204608 -0.498345
 0.261407  0.261411 -0.218582
0.140627 -0.11667 0.498603
 0.152137  0.102579 -0.498356
-0.064103  0.261685  0.146414
 -0.171648 -0.0661401   0.498577
-0.261612  0.176302 -0.263851
0.0630045 -0.261654 -0.145611
-0.261033 -0.261332  0.264444
-0.261295  0.261453  0.264044
 0.261545 -0.168676 -0.263404
 0.261674  0.261502 -0.135102
 -0.184694 -0.0176046   0.498608
 0.261261 -0.261834  0.263793
-0.261543  0.261793 -0.163474
  0.261549  -0.261873 -0.0655172
-0.0804754  -0.261605  -0.138346
  0.12783 -0.261648 0.0913467
 0.168318 0.0726708  0.498491
0.261765 0.261676 0.145839
 -0.261635   0.261927 -0.0765513
-0.175836 0.0537202 -0.498321
  -0.17745 -0.0498361   0.498537
0.114222 0.142786 0.263625
 0.261797   0.13424 0.0876424
 0.261618 -0.261734  0.124781
-0.261271  0.139781  0.263927
 0.182791 0.0149937  0.263334
 0.261849  0.158209 0.0134651
0.261588 0.196871 0.263837
   0.261863    0.261646 -0.00296835
  0.261846   0.261658 -0.0767724
0.092026 0.261856 0.263526
0.135851 0.123449 0.498456
-0.261733  0.136066 -0.263826
-0.261567  0.208001 -0.263806
 0.261577  -0.26168 -0.156376
-0.261102 -0.221134  0.264345
0.00270461   0.261601  -0.158591
0.0522364  0.177317  0.498592
 0.261675  0.117615 -0.105443
 0.123367 -0.137882  0.498587
 0.261856  0.261749 0.0750059
-0.0966762   -0.15796   0.263714
 0.124594  0.126002 0.0977072
-0.133823  0.261646  0.263988
 0.039698 -0.261676 -0.152028
 0.210918 -0.261831    0.2637
-0.101419 -0.154358  0.263765
 0.261502 -0.173493  0.263876
 0.261718  0.261498 -0.131322
 0.116578  0.261581 -0.107852
-0.228302  0.261707   -0.2638
  0.122901  -0.122132 -0.0999717
-0.261158 -0.156663  0.264005
-0.153925   0.26164 -0.263776
-0.261633  0.102641 -0.119832
 -0.261775 -0.0245768  -0.263243
-0.211634 -0.261436  -0.26391
-0.137488 -0.261532 -0.083223
 0.141696 -0.118875  0.263803
-0.153291  0.101893 -0.498344
  0.158342   0.160234 -0.0163013
0.00177987   0.183812   0.498615
 -0.261577 -0.0615255  -0.144121
-0.0619836  -0.174176  -0.498413
-0.0807146    -0.2617  -0.263371
-0.261793 0.0113653 -0.263207
   0.26183   0.261679 -0.0415434
-0.20089 -0.26138 0.264246
0.117553 -0.11876 0.106077
0.0856316 -0.261672 -0.132721
-0.0567154  -0.261569     0.1463
  0.148306  -0.150686 -0.0525107
 0.261731 0.0955797  0.127339
 0.261492 -0.118979  0.105177
0.0327916  0.261617 -0.155798
  0.261671 0.00446415       0.16
  0.149564   0.261628 -0.0583718
0.102751 0.152099 0.498541
