0.196149000000000  0.178631000000000  -0.263563000000000
0.146206000000000  -0.261684000000000 0.135588000000000 
0.013485900000000  0.215261000000000  -0.263206000000000
0.098731700000000 0.187513000000000 0.263520000000000
-0.145975000000000 -0.093314200000000 -0.126507000000000
-0.059432500000000 -0.132074000000000 0.146251000000000 
0.089031600000000 0.159884000000000 0.327047000000000
0.143149000000000  -0.113499000000000 -0.346426000000000
0.010090900000000 0.161834000000000 0.156745000000000
0.235153000000000  -0.045029100000000 -0.150711000000000
-0.095063800000000 -0.261697000000000 -0.230016000000000
-0.086735900000000 0.113145000000000  0.498580000000000 
-0.261294000000000 -0.000306218000000 0.237982000000000 
0.030743800000000  0.181135000000000  -0.463444000000000
0.028114200000000  -0.261601000000000 0.151978000000000 
-0.261298000000000 -0.084968900000000 0.187319000000000 
-0.132597000000000 0.126431000000000  -0.367747000000000
-0.060190100000000 0.012593900000000  -0.155673000000000
0.120892000000000  -0.057473800000000 -0.145916000000000
0.150268000000000  -0.241965000000000 0.048812300000000 
-0.261610000000000 0.136426000000000  -0.158695000000000
-0.058302300000000 0.229468000000000  -0.147307000000000
0.135161000000000  -0.117124000000000 0.108106000000000 
0.036991600000000  -0.059899300000000 0.152876000000000 
0.139832000000000 0.231192000000000 0.263631000000000
-0.067926200000000 -0.261658000000000 -0.177873000000000
-0.261775000000000 0.005306440000000  -0.217805000000000
0.159065000000000  -0.261741000000000 -0.125211000000000
0.099700900000000 0.088757000000000 0.130792000000000
-0.072901700000000 -0.041585100000000 -0.498316000000000
-0.136925000000000 0.190174000000000  0.079091400000000 
0.088299800000000  0.208351000000000  -0.131747000000000
-0.261601000000000 0.229425000000000  -0.122800000000000
0.130701000000000 0.075289000000000 0.498485000000000
0.143740000000000  -0.261816000000000 0.227737000000000 
-0.085008300000000 -0.115445000000000 -0.132094000000000
-0.080328200000000 0.261635000000000  -0.187877000000000
0.209821000000000 0.231564000000000 0.263787000000000
0.040324900000000 0.029624500000000 0.152254000000000
-0.142617000000000 -0.117079000000000 0.349723000000000 
-0.139475000000000 -0.038981700000000 0.152132000000000 
0.261603000000000  -0.084419200000000 -0.206670000000000
-0.070933400000000 -0.169940000000000 -0.438784000000000
0.148248000000000  -0.190045000000000 0.263727000000000 
0.152432000000000 0.101394000000000 0.413932000000000
-0.228495000000000 -0.017293700000000 0.157388000000000 
-0.163057000000000 0.083220400000000  -0.423480000000000
-0.230582000000000 0.120572000000000  0.102007000000000 
-0.228772000000000 0.261829000000000  -0.030738700000000
0.113099000000000  -0.144546000000000 0.344459000000000 
-0.101785000000000 0.084086100000000  0.133578000000000 
-0.195452000000000 -0.261557000000000 -0.115618000000000
0.261616000000000  -0.194604000000000 0.065877800000000 
0.186130000000000  -0.261722000000000 0.123658000000000 
-0.199763000000000 -0.144274000000000 0.263940000000000 
0.261593000000000  -0.184722000000000 0.037602100000000 
-0.176667000000000 0.048312700000000  0.306414000000000 
-0.120040000000000 0.001428440000000  -0.498270000000000
0.195699000000000  -0.108941000000000 0.114354000000000 
0.119720000000000  -0.210748000000000 0.263662000000000 
0.223441000000000  0.024338800000000  -0.263007000000000
0.229971000000000  0.177467000000000  -0.263546000000000
-0.227714000000000 0.157769000000000  0.002375010000000 
-0.261731000000000 0.130015000000000  -0.229637000000000
-0.104677000000000 -0.261562000000000 0.166477000000000 
-0.118706000000000 -0.139984000000000 -0.382056000000000
0.182519000000000  0.025197500000000  -0.400079000000000
-0.220211000000000 -0.261479000000000 0.168340000000000 
0.003316920000000  -0.013025300000000 -0.498346000000000
0.120461000000000  -0.230255000000000 -0.263376000000000
0.157599000000000  0.204271000000000  -0.018294300000000
-0.129084000000000 -0.219753000000000 0.263875000000000 
0.261811000000000 0.047007900000000 0.230261000000000
-0.174127000000000 -0.261548000000000 0.115317000000000 
-0.165011000000000 0.261555000000000  0.110762000000000 
0.236543000000000  -0.004432640000000 0.263482000000000 
-0.261599000000000 -0.228349000000000 -0.093035700000000
-0.065760300000000 -0.211781000000000 0.263466000000000 
-0.043457400000000 0.261812000000000  0.224863000000000 
0.185148000000000  -0.137881000000000 -0.076770200000000
-0.092004100000000 -0.089094900000000 -0.498371000000000
-0.130155000000000 -0.120281000000000 0.104279000000000 
0.185335000000000  -0.261665000000000 -0.191444000000000
-0.156495000000000 -0.106171000000000 0.116090000000000 
0.050828500000000 0.176185000000000 0.297966000000000
0.079942600000000  -0.073271400000000 0.498577000000000 
-0.047674600000000 -0.127143000000000 -0.498396000000000
-0.035226300000000 0.180748000000000  -0.338594000000000
-0.192364000000000 -0.133172000000000 0.087040600000000 
0.126801000000000  -0.261701000000000 -0.152754000000000
-0.070018900000000 -0.149585000000000 0.140809000000000 
-0.033778400000000 0.261784000000000  0.176355000000000 
-0.124061000000000 -0.097682800000000 -0.123173000000000
-0.128049000000000 -0.132029000000000 0.409349000000000 
0.261599000000000  -0.072540600000000 -0.198015000000000
-0.161994000000000 0.140177000000000  0.263915000000000 
-0.114313000000000 0.069414400000000  0.141412000000000 
0.120709000000000  -0.239443000000000 0.100597000000000 
-0.223115000000000 -0.261527000000000 -0.057828400000000
0.154592000000000  -0.173716000000000 -0.263437000000000
0.215012000000000  0.075889200000000  -0.137709000000000
0.215792000000000  0.017271200000000  -0.262986000000000
-0.052868500000000 0.000501644000000  0.498572000000000 
-0.220390000000000 0.083909100000000  0.263623000000000 
0.183136000000000 0.007740120000000 0.327963000000000
-0.131918000000000 0.261668000000000  -0.199393000000000
-0.106077000000000 0.225212000000000  0.263911000000000 
-0.143748000000000 -0.205162000000000 -0.067172100000000
-0.027893500000000 0.128563000000000  0.498592000000000 
-0.062842900000000 0.172372000000000  -0.314587000000000
0.261419000000000  -0.226053000000000 0.201503000000000 
-0.164255000000000 -0.261570000000000 -0.208351000000000
-0.016056100000000 0.182716000000000  0.451256000000000 
0.158220000000000 0.194504000000000 0.000323372000000
0.064694900000000  -0.187344000000000 -0.144057000000000
0.230676000000000  -0.033291800000000 -0.153324000000000
0.134255000000000 0.233964000000000 0.082366000000000
-0.261531000000000 0.213246000000000  -0.010662700000000
-0.222000000000000 -0.261494000000000 -0.022536300000000
0.116054000000000  0.133082000000000  -0.108145000000000
-0.053874400000000 -0.121478000000000 -0.147846000000000
0.013592600000000 0.039265000000000 0.498589000000000
0.051428800000000 0.022717100000000 0.153737000000000
-0.099816100000000 -0.154863000000000 0.450782000000000 
-0.261778000000000 0.010394400000000  -0.227102000000000
0.148442000000000  0.108483000000000  -0.426661000000000
0.025746100000000  -0.224712000000000 -0.263097000000000
-0.261286000000000 -0.059738900000000 0.209221000000000 
0.093771800000000  0.016539000000000  -0.157153000000000
-0.175653000000000 0.261547000000000  0.052894400000000 
-0.069071400000000 0.170251000000000  0.405795000000000 
-0.126909000000000 -0.261622000000000 -0.174738000000000
-0.222671000000000 0.141624000000000  0.071153000000000 
0.154806000000000 0.179652000000000 0.034244600000000
0.067498100000000  -0.170290000000000 0.409891000000000 
-0.125822000000000 0.133336000000000  -0.299699000000000
0.114277000000000  -0.123461000000000 0.109429000000000 
0.043452000000000  -0.203663000000000 -0.151297000000000
-0.195550000000000 0.261586000000000  0.051714900000000 
0.189087000000000  0.261459000000000  -0.198677000000000
-0.214187000000000 0.163577000000000  -0.263874000000000
-0.261313000000000 0.014258900000000  0.230979000000000 
-0.261360000000000 -0.225976000000000 0.126593000000000 
-0.013224800000000 -0.141991000000000 0.156526000000000 
-0.128121000000000 -0.131872000000000 0.422948000000000 
0.234041000000000 0.231856000000000 0.263848000000000
0.117420000000000  0.027661300000000  -0.154855000000000
-0.190851000000000 -0.261480000000000 -0.031026000000000
0.178724000000000  0.045628900000000  -0.348250000000000
-0.116223000000000 0.092982500000000  0.498583000000000 
-0.131337000000000 -0.128616000000000 0.399853000000000 
-0.153826000000000 0.100250000000000  0.384092000000000 
0.182185000000000 0.089629000000000 0.129878000000000
0.022305400000000  -0.182192000000000 -0.425610000000000
-0.011608900000000 -0.183728000000000 -0.318226000000000
-0.005355000000000 0.127149000000000  0.156456000000000 
0.036194900000000  0.180058000000000  -0.462862000000000
-0.183951000000000 0.155496000000000  -0.263890000000000
-0.179984000000000 0.033536200000000  -0.293309000000000
-0.183354000000000 0.013638000000000  0.310115000000000 
0.213765000000000  -0.015908100000000 0.263363000000000 
0.021008500000000 0.232532000000000 0.263286000000000
-0.213512000000000 -0.261491000000000 -0.020600000000000
-0.261312000000000 0.223207000000000  0.231653000000000 
-0.202994000000000 0.132206000000000  -0.087624500000000
-0.146724000000000 0.110301000000000  0.352828000000000 
-0.007204260000000 -0.110731000000000 0.156463000000000 
-0.128142000000000 0.174553000000000  -0.094951100000000
0.059812500000000  -0.105390000000000 -0.498305000000000
0.087046700000000 0.160501000000000 0.406445000000000
-0.129494000000000 -0.177377000000000 0.263817000000000 
0.213821000000000 0.067866200000000 0.141916000000000
0.172072000000000  0.089757700000000  -0.128669000000000
-0.114784000000000 -0.143672000000000 0.432716000000000 
-0.120262000000000 0.138067000000000  -0.356578000000000
0.110705000000000 0.155917000000000 0.111010000000000
0.208053000000000  0.261574000000000  -0.113283000000000
-0.052366100000000 -0.094697900000000 -0.148398000000000
0.142760000000000  -0.114147000000000 0.462589000000000 
-0.051580300000000 -0.223528000000000 -0.148410000000000
0.224408000000000  -0.072404100000000 0.139569000000000 
-0.261298000000000 -0.195297000000000 0.152005000000000 
-0.084510400000000 0.120555000000000  -0.132164000000000
0.123338000000000  0.228129000000000  -0.099924500000000
0.002802140000000 0.162174000000000 0.157097000000000
-0.144887000000000 0.091233200000000  -0.127579000000000
0.163246000000000 0.084230500000000 0.463997000000000
0.202628000000000  -0.082300800000000 -0.263154000000000
-0.064266400000000 -0.013092300000000 0.498560000000000 
0.182748000000000  -0.027590500000000 -0.472602000000000
-0.232534000000000 -0.261399000000000 -0.207691000000000
0.261677000000000  0.151834000000000  -0.124025000000000
-0.096581400000000 -0.178420000000000 0.124602000000000 
0.162575000000000 0.083231600000000 0.378261000000000
0.070360300000000  -0.169493000000000 -0.442027000000000
-0.073805000000000 0.046871300000000  0.150547000000000 
-0.008925060000000 -0.077957100000000 0.156163000000000 
-0.080354500000000 0.122216000000000  0.498576000000000 
-0.110543000000000 0.077687900000000  0.136949000000000 
-0.195111000000000 0.134696000000000  0.083447200000000 
0.126245000000000  -0.059410800000000 0.498596000000000 
-0.129346000000000 -0.228714000000000 -0.263616000000000
0.040188300000000  0.178759000000000  -0.309871000000000
0.159541000000000  0.091320200000000  -0.302748000000000
-0.261732000000000 0.054536100000000  -0.204790000000000
-0.261618000000000 -0.234425000000000 -0.031339100000000
0.191224000000000  -0.087058100000000 0.131658000000000 
0.210654000000000  -0.261862000000000 -0.069003900000000
-0.183083000000000 0.010603800000000  -0.289610000000000
-0.122775000000000 0.261661000000000  -0.211815000000000
0.184850000000000  -0.015296200000000 -0.314340000000000
0.018653500000000  0.016566700000000  -0.156060000000000
-0.261351000000000 -0.235018000000000 0.136127000000000 
-0.261234000000000 -0.193895000000000 0.178409000000000 
0.184302000000000  0.010060300000000  -0.389464000000000
-0.018426500000000 -0.105656000000000 0.498553000000000 
0.219138000000000 0.261749000000000 0.080991100000000
0.156060000000000  -0.096735200000000 0.418410000000000 
-0.261593000000000 0.162729000000000  -0.081830600000000
0.192704000000000  -0.151313000000000 0.046981500000000 
0.209666000000000  -0.001024700000000 0.263187000000000 
-0.019118600000000 -0.182895000000000 0.465691000000000 
0.261607000000000  -0.205855000000000 0.009055930000000 
-0.175134000000000 0.054610300000000  0.392151000000000 
0.212655000000000  -0.022283300000000 0.263396000000000 
0.217097000000000  -0.206565000000000 0.263829000000000 
-0.261628000000000 -0.113530000000000 -0.215033000000000
-0.062893200000000 -0.220856000000000 -0.263216000000000
0.154678000000000 0.018619700000000 0.498589000000000
-0.034205900000000 0.180196000000000  -0.458237000000000
0.235005000000000 0.176012000000000 0.263815000000000
0.030286700000000 0.180804000000000 0.319117000000000
0.261735000000000 0.225262000000000 0.164468000000000
0.196233000000000  -0.138966000000000 0.078084000000000 
0.261644000000000  -0.218176000000000 0.099492600000000 
0.001171040000000  0.045396000000000  -0.156934000000000
-0.103839000000000 0.060878900000000  -0.144480000000000
0.080118100000000  -0.261777000000000 -0.213197000000000
0.184476000000000  -0.000638391000000 -0.308875000000000
-0.166909000000000 0.169864000000000  0.264002000000000 
0.261659000000000  0.175900000000000  -0.146257000000000
-0.007458040000000 -0.138051000000000 -0.157070000000000
-0.066814800000000 0.230546000000000  -0.263373000000000
-0.001596690000000 -0.085226200000000 -0.498313000000000
-0.107836000000000 -0.225802000000000 0.263761000000000 
0.013221800000000  0.074920200000000  -0.156978000000000
-0.148759000000000 0.037922600000000  -0.151252000000000
-0.212609000000000 0.096507600000000  0.124437000000000 
0.025302600000000  0.072666800000000  -0.155600000000000
-0.261424000000000 -0.188647000000000 -0.185955000000000
-0.224370000000000 -0.152049000000000 0.045951900000000 
0.213848000000000  -0.009694300000000 -0.262973000000000
-0.090304900000000 -0.160401000000000 0.378760000000000 
0.003750710000000  -0.183520000000000 -0.294019000000000
0.145700000000000  -0.110170000000000 -0.315254000000000
-0.192463000000000 0.154238000000000  -0.263887000000000
0.261653000000000 0.188882000000000 0.208870000000000
-0.045468300000000 -0.113718000000000 -0.150427000000000
-0.209150000000000 -0.261428000000000 0.201034000000000 
0.113333000000000  -0.058005400000000 0.146664000000000 
-0.131138000000000 0.261596000000000  0.154856000000000 
-0.146861000000000 -0.018474200000000 0.498607000000000 
0.028992600000000  0.030723500000000  -0.155543000000000
-0.198321000000000 -0.261560000000000 -0.112109000000000
0.198771000000000  -0.261786000000000 0.177293000000000 
0.088197200000000  -0.228062000000000 0.130800000000000 
0.261749000000000 0.098100900000000 0.161604000000000
0.167672000000000 0.072264100000000 0.389900000000000
0.261596000000000  -0.200044000000000 -0.011684100000000
0.053858100000000 0.097333500000000 0.145950000000000
0.037147700000000  -0.179943000000000 -0.423691000000000
-0.182514000000000 0.016686700000000  -0.291849000000000
0.107714000000000  -0.115908000000000 0.498575000000000 
-0.183848000000000 -0.000785452000000 0.377008000000000 
0.038571200000000  0.020120200000000  -0.498341000000000
-0.102429000000000 -0.148935000000000 0.119721000000000 
0.171495000000000 0.261694000000000 0.198272000000000
0.036235600000000  0.023496800000000  -0.498343000000000
-0.177272000000000 0.229181000000000  0.264062000000000 
-0.051047700000000 0.176317000000000  -0.369116000000000
0.198285000000000 0.089667500000000 0.263531000000000
-0.226371000000000 -0.012533800000000 0.263306000000000 
0.261594000000000  -0.201179000000000 0.110148000000000 
-0.022410000000000 -0.070190000000000 -0.498335000000000
-0.120956000000000 -0.188653000000000 0.263817000000000 
-0.105232000000000 -0.150394000000000 0.361884000000000 
-0.177785000000000 -0.228572000000000 0.264120000000000 
0.007122470000000  -0.183831000000000 0.375417000000000 
0.261682000000000 0.169786000000000 0.194590000000000
-0.261615000000000 0.179116000000000  -0.114725000000000
0.111097000000000  -0.046437000000000 -0.149196000000000
0.077904700000000 0.214256000000000 0.136820000000000
-0.093030900000000 0.104526000000000  0.498581000000000 
-0.230414000000000 0.154300000000000  0.263957000000000 
0.014836300000000  -0.123610000000000 -0.156458000000000
-0.123592000000000 0.089831200000000  -0.498334000000000
-0.094335900000000 -0.157527000000000 -0.463070000000000
0.176603000000000  0.052763200000000  -0.367954000000000
0.109440000000000  0.147434000000000  -0.362268000000000
-0.138245000000000 -0.261537000000000 0.179749000000000 
-0.177341000000000 0.046951400000000  0.393954000000000 
-0.091905400000000 0.261644000000000  -0.178748000000000
-0.046839900000000 -0.119555000000000 0.150947000000000 
0.045251000000000  0.041918400000000  -0.498340000000000
-0.156194000000000 0.074653400000000  -0.138183000000000
-0.098736400000000 -0.155767000000000 0.432560000000000 
0.137924000000000 0.203606000000000 0.076653300000000
0.153571000000000  0.038794900000000  -0.152260000000000
0.261559000000000  -0.135733000000000 -0.209392000000000
-0.047351400000000 -0.178163000000000 -0.334133000000000
0.261577000000000  -0.226243000000000 -0.091144700000000
-0.030773700000000 -0.261685000000000 -0.218486000000000
-0.171165000000000 -0.171341000000000 0.263994000000000 
-0.197855000000000 0.261583000000000  0.057837900000000 
-0.120269000000000 0.261661000000000  -0.207678000000000
-0.136705000000000 -0.046981600000000 0.498579000000000 
0.089355200000000  0.160707000000000  -0.386710000000000
0.121569000000000 0.103185000000000 0.122365000000000
0.143374000000000  0.115344000000000  -0.414305000000000
0.261745000000000 0.125533000000000 0.195771000000000
0.013269900000000  -0.079929400000000 -0.498302000000000
0.215211000000000  -0.261743000000000 0.008988780000000 
0.043700500000000  0.107712000000000  -0.150996000000000
-0.162473000000000 -0.087226800000000 0.372296000000000 
-0.136803000000000 -0.167838000000000 0.081556600000000 
0.261777000000000 0.191658000000000 0.142432000000000
-0.103039000000000 -0.016037900000000 -0.498276000000000
-0.157385000000000 0.078715400000000  -0.136068000000000
-0.116941000000000 0.006467240000000  0.157671000000000 
-0.030805300000000 -0.183950000000000 0.154436000000000 
0.033137600000000 0.018101100000000 0.155410000000000
-0.100518000000000 0.153294000000000  -0.401832000000000
0.261551000000000  -0.183133000000000 -0.124303000000000
0.171842000000000  -0.261656000000000 -0.216709000000000
-0.190859000000000 0.261566000000000  0.120294000000000 
-0.261315000000000 -0.098088700000000 0.163583000000000 
0.183171000000000  -0.015309100000000 -0.367864000000000
-0.261625000000000 0.215729000000000  -0.094123200000000
-0.095336200000000 0.217817000000000  0.263813000000000 
-0.204494000000000 0.223608000000000  -0.263836000000000
-0.096624700000000 0.261656000000000  -0.160751000000000
-0.098238700000000 0.182861000000000  0.123520000000000 
-0.062252900000000 -0.222981000000000 -0.144932000000000
0.228735000000000  -0.024594600000000 0.263317000000000 
0.134511000000000  -0.261719000000000 -0.163031000000000
-0.089097400000000 -0.161551000000000 0.464375000000000 
0.149030000000000  0.107404000000000  -0.454691000000000
-0.074210200000000 0.220029000000000  -0.263432000000000
0.210813000000000  -0.261727000000000 0.017487700000000 
-0.218286000000000 0.214432000000000  -0.263835000000000
0.206845000000000 0.074494500000000 0.138655000000000
-0.094356800000000 -0.103446000000000 0.126491000000000 
0.169860000000000  0.261614000000000  -0.089036400000000
0.095625900000000  -0.102584000000000 0.125085000000000 
0.021292500000000  -0.044758500000000 0.498594000000000 
-0.154906000000000 0.098243000000000  -0.418051000000000
-0.123792000000000 0.135305000000000  0.291278000000000 
0.229647000000000  -0.133298000000000 0.085622900000000 
-0.261442000000000 -0.186489000000000 -0.163452000000000
-0.128455000000000 -0.076696300000000 -0.136188000000000
0.261714000000000  0.107012000000000  -0.220396000000000
0.212062000000000 0.021906100000000 0.157069000000000
0.135730000000000  0.020374400000000  -0.156195000000000
-0.218480000000000 -0.197029000000000 0.264222000000000 
-0.225555000000000 -0.261512000000000 -0.039095700000000
0.057965500000000  -0.099488800000000 -0.498291000000000
0.021962600000000  0.261611000000000  -0.188050000000000
0.214532000000000  -0.090673900000000 -0.263200000000000
-0.056711400000000 -0.065838900000000 -0.498345000000000
0.215085000000000  -0.261841000000000 -0.093758900000000
-0.056276300000000 -0.089147900000000 -0.147293000000000
0.100321000000000  0.171898000000000  -0.121998000000000
0.261636000000000  -0.209624000000000 0.103228000000000 
-0.167140000000000 -0.136133000000000 0.083262300000000 
-0.261478000000000 -0.178996000000000 -0.112336000000000
0.107780000000000 0.039994600000000 0.498516000000000
0.024070800000000  -0.094605000000000 -0.155354000000000
-0.261576000000000 -0.223728000000000 0.044483500000000 
0.043520200000000  0.216015000000000  -0.263226000000000
0.129093000000000  0.205775000000000  -0.263593000000000
-0.118967000000000 0.181987000000000  -0.263709000000000
-0.117105000000000 0.003506570000000  -0.498270000000000
0.091177400000000  0.060937100000000  -0.143890000000000
-0.148976000000000 -0.228039000000000 0.056567200000000 
-0.170757000000000 -0.261561000000000 -0.210827000000000
-0.156138000000000 -0.097234900000000 -0.441034000000000
0.146823000000000  0.015887900000000  -0.156887000000000
0.032610200000000  -0.180747000000000 -0.432200000000000
-0.201659000000000 0.261776000000000  -0.156908000000000
0.086636800000000 0.160722000000000 0.408814000000000
-0.173527000000000 0.261559000000000  0.101245000000000 
0.205416000000000  -0.204391000000000 -0.263446000000000
0.046432100000000  -0.012388700000000 -0.498334000000000
-0.128482000000000 0.202080000000000  -0.094342800000000
0.034607600000000  -0.261681000000000 -0.179318000000000
-0.261635000000000 0.162384000000000  -0.224105000000000
-0.039821800000000 -0.160952000000000 0.152639000000000 
-0.153888000000000 0.099507200000000  -0.354519000000000
-0.202195000000000 0.114667000000000  -0.108247000000000
-0.074546900000000 0.157848000000000  0.138699000000000 
0.192143000000000  0.261678000000000  -0.002711080000000
-0.261324000000000 -0.165682000000000 0.138267000000000 
0.105875000000000  0.261616000000000  -0.223214000000000
0.097501400000000 0.075177600000000 0.137588000000000
0.014448500000000  -0.106628000000000 0.498557000000000 
0.071140800000000  -0.144995000000000 0.140259000000000 
-0.115080000000000 0.143328000000000  0.329679000000000 
0.261558000000000  0.204093000000000  -0.186453000000000
0.196530000000000  0.140228000000000  -0.073679800000000
0.261615000000000  -0.098156700000000 0.217862000000000 
-0.183632000000000 -0.261488000000000 -0.045208900000000
0.070352600000000  -0.070091300000000 -0.498282000000000
0.117566000000000  -0.049586700000000 -0.498308000000000
0.171716000000000  -0.064886700000000 -0.338811000000000
0.153991000000000 0.098798200000000 0.345084000000000
-0.261496000000000 0.205960000000000  0.017399800000000 
0.185853000000000  0.261437000000000  -0.225604000000000
0.139513000000000  -0.032696800000000 0.154103000000000 
-0.261675000000000 0.065246500000000  -0.183323000000000
0.261522000000000  -0.117783000000000 -0.163516000000000
0.045544800000000  -0.178508000000000 -0.423375000000000
-0.173877000000000 -0.060454200000000 0.450370000000000 
0.181369000000000  0.034269900000000  -0.430911000000000
0.261733000000000 0.103921000000000 0.148878000000000
0.142609000000000  -0.115909000000000 0.336716000000000 
0.261632000000000  -0.050196000000000 0.200417000000000 
0.128697000000000 0.129611000000000 0.357148000000000
-0.206940000000000 -0.261435000000000 -0.210524000000000
0.064373900000000  -0.047050700000000 0.149966000000000 
-0.110066000000000 0.146240000000000  -0.439937000000000
-0.035077600000000 -0.220937000000000 -0.153405000000000
-0.048931000000000 -0.088849800000000 0.150028000000000 
-0.173237000000000 -0.062268100000000 -0.464910000000000
-0.261741000000000 0.030458800000000  -0.202107000000000
-0.083579100000000 -0.163793000000000 -0.423897000000000
0.216175000000000  0.165546000000000  -0.263538000000000
-0.155225000000000 -0.261519000000000 0.104706000000000 
-0.110605000000000 0.113011000000000  0.111448000000000 
0.232380000000000  0.090908800000000  -0.127340000000000
-0.261479000000000 0.201007000000000  0.041227700000000 
0.064587900000000  -0.171263000000000 0.298309000000000 
-0.175369000000000 0.119380000000000  -0.103086000000000
-0.261466000000000 -0.193789000000000 0.093719400000000 
-0.040214700000000 -0.053588200000000 -0.152331000000000
-0.021199600000000 0.182875000000000  -0.294934000000000
-0.127357000000000 0.190578000000000  -0.263753000000000
-0.126427000000000 -0.200075000000000 -0.094373000000000
0.261610000000000  -0.069808100000000 0.181544000000000 
-0.178051000000000 0.044950200000000  -0.439162000000000
-0.081964600000000 0.131579000000000  0.498583000000000 
0.081307600000000  0.024365500000000  -0.498313000000000
-0.235075000000000 0.141408000000000  -0.074663800000000
-0.056708900000000 0.174898000000000  0.457771000000000 
0.261753000000000 0.096121100000000 0.166064000000000
-0.017051000000000 0.073363100000000  0.155834000000000 
0.165112000000000  -0.114080000000000 -0.108400000000000
-0.261601000000000 0.181771000000000  -0.132051000000000
-0.155079000000000 0.086636200000000  0.131726000000000 
-0.167332000000000 -0.261512000000000 0.168276000000000 
-0.043988400000000 0.081079800000000  -0.498321000000000
-0.261302000000000 0.184605000000000  0.219414000000000 
0.041682500000000  -0.179358000000000 0.368986000000000 
-0.096410200000000 -0.156467000000000 -0.344560000000000
0.118119000000000  -0.140778000000000 -0.407545000000000
-0.066145400000000 0.033713300000000  0.498573000000000 
-0.159650000000000 -0.092780000000000 0.334706000000000 
-0.226495000000000 0.129001000000000  -0.263815000000000
0.184407000000000  0.010402200000000  -0.364783000000000
0.216332000000000  0.053870700000000  -0.263100000000000
0.178556000000000  -0.028062300000000 -0.154440000000000
-0.103124000000000 0.082918900000000  -0.134055000000000
-0.096890200000000 0.214142000000000  0.124265000000000 
0.154408000000000  -0.218649000000000 0.033983000000000 
0.233190000000000  -0.029698300000000 0.263334000000000 
-0.040886600000000 0.135297000000000  -0.152369000000000
-0.076290700000000 -0.220677000000000 -0.140190000000000
0.194528000000000  -0.261708000000000 0.033028200000000 
-0.213118000000000 0.261609000000000  0.051999100000000 
-0.206301000000000 0.026097300000000  0.156026000000000 
-0.261390000000000 0.206963000000000  0.120801000000000 
-0.261307000000000 0.126375000000000  0.217553000000000 
-0.089824100000000 0.125179000000000  -0.128777000000000
-0.225954000000000 -0.095011200000000 -0.263453000000000
0.171675000000000  -0.261792000000000 0.185638000000000 
-0.261518000000000 -0.191065000000000 -0.093637200000000
0.056070000000000 0.174293000000000 0.364341000000000
-0.261591000000000 -0.218854000000000 -0.038457400000000
-0.037789700000000 0.147571000000000  0.153992000000000 
-0.261380000000000 0.182243000000000  0.127459000000000 
-0.162781000000000 0.261534000000000  0.083911400000000 
-0.261624000000000 0.224539000000000  -0.068864900000000
-0.208503000000000 0.261585000000000  0.076090400000000 
0.004214750000000  -0.007445160000000 0.155792000000000 
0.120650000000000  0.138675000000000  -0.330573000000000
-0.014132700000000 0.161774000000000  0.156139000000000 
-0.028256300000000 -0.012824400000000 0.155502000000000 
-0.068714700000000 -0.104355000000000 -0.498384000000000
-0.069658200000000 0.049953200000000  -0.148341000000000
-0.261520000000000 -0.154429000000000 -0.226908000000000
0.109448000000000 0.023686700000000 0.498528000000000
-0.158572000000000 -0.201167000000000 -0.010985800000000
0.120593000000000  0.261606000000000  -0.202685000000000
-0.127952000000000 0.172460000000000  0.263947000000000 
-0.097132700000000 0.118103000000000  0.498584000000000 
0.106560000000000 0.172810000000000 0.114893000000000
0.176748000000000  -0.047800700000000 0.382564000000000 
0.142668000000000  -0.114463000000000 0.451856000000000 
0.171597000000000  -0.078486500000000 -0.135709000000000
-0.041608800000000 -0.179487000000000 0.423467000000000 
0.013841100000000 0.021064000000000 0.155736000000000
0.261617000000000  -0.073696800000000 -0.220834000000000
0.033829100000000 0.261839000000000 0.228394000000000
0.207391000000000  -0.150382000000000 0.263857000000000 
0.116126000000000  -0.142106000000000 -0.350993000000000
0.085989300000000  -0.173413000000000 -0.133348000000000
0.077575200000000 0.207817000000000 0.137027000000000
-0.234118000000000 -0.261405000000000 -0.201473000000000
0.261702000000000 0.195161000000000 0.180278000000000
-0.052506700000000 0.208480000000000  0.149960000000000 
-0.086597500000000 0.062866200000000  0.146217000000000 
0.261735000000000 0.123046000000000 0.152954000000000
0.227489000000000 0.178738000000000 0.263816000000000
-0.172900000000000 -0.062822100000000 0.332668000000000 
-0.140993000000000 -0.158255000000000 0.263843000000000 
-0.172734000000000 0.061639100000000  0.429266000000000 
-0.092916000000000 -0.261676000000000 -0.204866000000000
-0.111705000000000 0.145593000000000  -0.323865000000000
0.082035300000000 0.071075900000000 0.498507000000000
0.039128600000000  -0.261630000000000 0.210835000000000 
-0.186918000000000 0.261855000000000  -0.095504600000000
-0.047684300000000 -0.261687000000000 -0.226580000000000
0.202135000000000 0.141087000000000 0.072717600000000
0.261768000000000 0.113840000000000 0.209487000000000
-0.097306200000000 0.096236000000000  0.127047000000000 
-0.109959000000000 -0.079477700000000 0.134410000000000 
0.158340000000000  0.093479100000000  -0.469714000000000
0.261831000000000 0.076053900000000 0.230737000000000
0.261780000000000 0.183927000000000 0.134842000000000
-0.186343000000000 -0.261555000000000 0.122608000000000 
0.185190000000000  -0.150365000000000 -0.051890800000000
-0.261534000000000 -0.185734000000000 -0.047295400000000
-0.179241000000000 -0.041192600000000 -0.447406000000000
-0.060366400000000 0.228685000000000  -0.147201000000000
-0.165815000000000 0.078300400000000  0.359307000000000 
0.261653000000000 0.185343000000000 0.210736000000000
-0.261455000000000 -0.176448000000000 -0.176110000000000
0.188965000000000  0.261655000000000  -0.053638500000000
0.184871000000000  -0.013549600000000 -0.308104000000000
0.261800000000000 0.064299200000000 0.206975000000000
-0.058859000000000 0.173965000000000  0.359342000000000 
0.261590000000000  -0.202945000000000 -0.033356100000000
0.162089000000000  0.075277800000000  -0.137661000000000
-0.095853100000000 -0.121672000000000 0.498550000000000 
0.183572000000000  -0.002979240000000 0.359301000000000 
-0.222010000000000 0.066671100000000  0.263511000000000 
-0.261592000000000 0.210612000000000  -0.134591000000000
-0.026363700000000 -0.201222000000000 -0.155660000000000
0.027358200000000  -0.049710500000000 -0.154630000000000
0.261572000000000  -0.128227000000000 0.213069000000000 
-0.003032020000000 0.261593000000000  -0.190189000000000
0.020083900000000  -0.057579000000000 0.155059000000000 
-0.184604000000000 0.191116000000000  0.264030000000000 
0.231365000000000 0.023632100000000 0.263330000000000
0.110741000000000  0.147007000000000  -0.454025000000000
-0.182039000000000 0.023559800000000  -0.421130000000000
-0.145115000000000 0.111797000000000  -0.319187000000000
0.121415000000000 0.092482000000000 0.128779000000000
0.039524100000000  0.101390000000000  -0.152648000000000
-0.194932000000000 -0.261576000000000 0.111781000000000 
-0.177884000000000 -0.261549000000000 -0.137506000000000
-0.043915500000000 -0.122823000000000 -0.498380000000000
0.261479000000000  -0.172336000000000 0.143662000000000 
0.019781600000000  0.002694790000000  -0.155951000000000
-0.016493000000000 -0.100759000000000 0.498555000000000 
0.158393000000000  -0.190728000000000 0.263751000000000 
-0.053174900000000 -0.131080000000000 0.148858000000000 
-0.158397000000000 -0.001279940000000 0.498617000000000 
0.051159900000000 0.221843000000000 0.263333000000000
0.085385500000000  -0.213148000000000 -0.133389000000000
-0.012522600000000 0.188021000000000  0.156615000000000 
0.172853000000000  -0.261797000000000 -0.096153400000000
0.042806600000000  0.261622000000000  -0.176372000000000
-0.261621000000000 0.134049000000000  -0.134004000000000
-0.153952000000000 -0.104251000000000 -0.118255000000000
-0.142455000000000 -0.092647500000000 -0.126880000000000
-0.143384000000000 -0.092452500000000 -0.127050000000000
-0.121986000000000 -0.137692000000000 0.330351000000000 
-0.044799200000000 -0.128226000000000 0.152740000000000 
0.144627000000000 0.207616000000000 0.064051100000000
0.159846000000000  -0.089187600000000 -0.368630000000000
-0.164087000000000 -0.261525000000000 0.141279000000000 
-0.075887000000000 0.166956000000000  -0.341145000000000
-0.117270000000000 -0.207858000000000 0.105742000000000 
-0.037135600000000 -0.180150000000000 -0.382828000000000
0.122628000000000  -0.027488600000000 -0.153827000000000
0.191264000000000 0.099910600000000 0.122212000000000
0.080565500000000  -0.059761900000000 -0.144460000000000
0.229793000000000  0.261446000000000  -0.176902000000000
0.210898000000000  0.105742000000000  -0.263363000000000
0.139062000000000  -0.024234500000000 0.498589000000000 
0.161269000000000 0.088141600000000 0.471383000000000
0.261654000000000  0.036018500000000  -0.212648000000000
0.133276000000000 0.125449000000000 0.434743000000000
0.134399000000000  0.217536000000000  -0.084881300000000
-0.132443000000000 0.168825000000000  -0.088426700000000
-0.019406400000000 0.095229000000000  0.155695000000000 
-0.003943330000000 -0.063027100000000 0.498582000000000 
-0.063477900000000 -0.103751000000000 -0.144830000000000
-0.013949900000000 -0.183477000000000 0.384620000000000 
-0.203591000000000 -0.261598000000000 0.076729400000000 
0.183526000000000  -0.261790000000000 0.186265000000000 
0.090145400000000  0.098680100000000  -0.129928000000000
0.136683000000000 0.121622000000000 0.353703000000000
0.234224000000000  -0.166383000000000 0.263874000000000 
-0.135897000000000 -0.213164000000000 0.081369600000000 
0.233044000000000  -0.159505000000000 -0.007236230000000
-0.200700000000000 0.233332000000000  -0.263827000000000
-0.177943000000000 -0.045988800000000 -0.411036000000000
0.157284000000000  -0.094372100000000 0.423751000000000 
-0.143546000000000 0.261676000000000  -0.209047000000000
-0.261180000000000 -0.178157000000000 0.224782000000000 
-0.261410000000000 -0.194487000000000 0.110769000000000 
0.174080000000000  -0.261790000000000 0.183384000000000 
-0.261378000000000 0.153753000000000  0.125491000000000 
-0.024012000000000 0.182024000000000  -0.454070000000000
-0.145766000000000 -0.113145000000000 0.350127000000000 
0.261710000000000 0.149313000000000 0.189316000000000
0.154194000000000  -0.098530500000000 -0.454733000000000
-0.127660000000000 -0.219174000000000 -0.093070000000000
0.261728000000000  0.167327000000000  -0.065582500000000
-0.216234000000000 -0.261609000000000 0.085498600000000 
-0.166758000000000 0.261553000000000  0.102283000000000 
0.105633000000000 0.093453300000000 0.498489000000000
0.077793700000000 0.071595600000000 0.498511000000000
0.127172000000000  -0.054217400000000 -0.498324000000000
0.261669000000000  0.185235000000000  -0.139607000000000
-0.178199000000000 -0.046215900000000 0.402513000000000 
-0.136323000000000 0.032856600000000  -0.152334000000000
0.027260300000000  0.181373000000000  -0.418823000000000
0.230849000000000  -0.042030100000000 -0.263024000000000
0.068738700000000  0.155294000000000  -0.142993000000000
0.088078300000000  0.179736000000000  -0.130845000000000
0.034185900000000  -0.225631000000000 -0.263116000000000
-0.261304000000000 0.193697000000000  0.234337000000000 
-0.092865300000000 -0.194382000000000 0.263680000000000 
-0.165774000000000 0.261733000000000  -0.161496000000000
-0.173461000000000 -0.061482400000000 -0.436318000000000
-0.116255000000000 0.143981000000000  0.105264000000000 
0.015804200000000  -0.010253500000000 -0.156029000000000
0.261545000000000  -0.185050000000000 -0.203816000000000
0.044812700000000  -0.201470000000000 0.151151000000000 
0.096574200000000  -0.045064800000000 0.498572000000000 
0.148102000000000  -0.107054000000000 -0.387642000000000
-0.094634600000000 0.212565000000000  0.125887000000000 
0.126211000000000  0.134204000000000  -0.397520000000000
0.145240000000000  -0.111313000000000 0.441853000000000 
-0.261440000000000 -0.197871000000000 0.105070000000000 
0.123866000000000  -0.135181000000000 0.342939000000000 
0.179781000000000  -0.037140500000000 0.415072000000000 
-0.184726000000000 -0.069731300000000 -0.140244000000000
-0.261603000000000 -0.222573000000000 -0.078235000000000
0.145626000000000 0.111220000000000 0.419869000000000
0.120916000000000  -0.193688000000000 0.101245000000000 
0.261745000000000 0.112973000000000 0.166576000000000
-0.261283000000000 -0.174380000000000 0.164298000000000 
0.015731600000000  -0.099289400000000 0.155757000000000 
0.180781000000000  0.037704900000000  -0.299055000000000
-0.224319000000000 0.195284000000000  -0.263852000000000
0.003886680000000 0.183439000000000 0.379364000000000
0.152282000000000 0.101678000000000 0.411357000000000
0.200682000000000  -0.261783000000000 -0.018816000000000
-0.112147000000000 -0.144888000000000 -0.423472000000000
0.261618000000000  0.012096300000000  -0.212904000000000
0.140509000000000  -0.118182000000000 0.348033000000000 
-0.150894000000000 0.105160000000000  0.117669000000000 
0.261816000000000 0.189063000000000 0.097242700000000
-0.041759000000000 0.261761000000000  0.169533000000000 
-0.094797700000000 0.195465000000000  -0.126430000000000
0.055216800000000  -0.202528000000000 -0.147549000000000
0.011235700000000 0.183351000000000 0.452279000000000
-0.128146000000000 -0.261534000000000 0.133552000000000 
-0.121989000000000 0.136918000000000  -0.344780000000000
0.010386800000000  0.005335540000000  -0.498345000000000
0.079953100000000  -0.164616000000000 0.334817000000000 
-0.149485000000000 -0.159434000000000 -0.263704000000000
-0.140618000000000 0.189199000000000  0.072826500000000 
0.261478000000000  -0.165755000000000 0.169054000000000 
-0.086047400000000 0.261761000000000  0.202031000000000 
-0.097449500000000 -0.155569000000000 -0.328753000000000
-0.093690000000000 0.121165000000000  0.126185000000000 
-0.001867900000000 -0.183850000000000 -0.364952000000000
0.090087000000000  -0.093794700000000 0.498588000000000 
0.058769400000000 0.069636500000000 0.143498000000000
-0.077803300000000 -0.120342000000000 0.136721000000000 
0.218165000000000  -0.261838000000000 -0.102905000000000
0.222147000000000  -0.015816700000000 0.263362000000000 
0.261567000000000  -0.224844000000000 -0.222030000000000
-0.181088000000000 0.028238600000000  -0.390719000000000
-0.140772000000000 0.261582000000000  0.155528000000000 
-0.261611000000000 -0.080251300000000 -0.170960000000000
-0.154324000000000 0.261755000000000  -0.136959000000000
0.228266000000000 0.157994000000000 0.023098500000000
-0.075810000000000 -0.209684000000000 0.137417000000000 
0.029389800000000 0.180947000000000 0.385588000000000
0.261846000000000  0.182701000000000  -0.005299190000000
-0.198850000000000 -0.261580000000000 0.106921000000000 
-0.179316000000000 -0.030551400000000 -0.153589000000000
-0.261684000000000 -0.095225200000000 -0.226432000000000
0.194015000000000  -0.261757000000000 -0.138238000000000
0.261796000000000 0.187334000000000 0.115243000000000
0.222953000000000  -0.202633000000000 0.263842000000000 
-0.132567000000000 -0.197141000000000 -0.263657000000000
-0.217249000000000 0.121622000000000  -0.100496000000000
0.233659000000000  0.008025950000000  -0.157374000000000
-0.011288900000000 -0.089522100000000 -0.498312000000000
-0.189835000000000 0.130561000000000  0.088770900000000 
0.119299000000000  -0.140966000000000 -0.446672000000000
-0.184760000000000 -0.261525000000000 0.145848000000000 
0.200901000000000  -0.159520000000000 -0.007791470000000
0.023142600000000 0.212928000000000 0.263286000000000
0.096833100000000  -0.053995000000000 -0.498287000000000
0.176769000000000  0.261654000000000  -0.031213700000000
-0.042363800000000 -0.230133000000000 0.263346000000000 
-0.026179900000000 0.020664600000000  0.155593000000000 
-0.153917000000000 -0.231514000000000 0.040640600000000 
0.174003000000000  0.090914400000000  -0.127838000000000
-0.121886000000000 0.233308000000000  -0.263676000000000
-0.182425000000000 -0.145909000000000 -0.063844000000000
0.192484000000000 0.261735000000000 0.121421000000000
-0.203460000000000 0.127609000000000  0.092923600000000 
-0.045189000000000 -0.004819510000000 0.155756000000000 
-0.261605000000000 0.145131000000000  -0.191879000000000
0.028687600000000 0.003982190000000 0.155723000000000
0.261649000000000  0.135822000000000  -0.153957000000000
0.176079000000000  0.054976400000000  -0.360538000000000
-0.064944200000000 0.153436000000000  0.143569000000000 
0.261629000000000  -0.066718500000000 0.233492000000000 
-0.198247000000000 -0.226203000000000 0.264229000000000 
0.217825000000000  -0.076546800000000 0.263657000000000 
0.216302000000000  -0.040741500000000 -0.263010000000000
-0.145290000000000 -0.261638000000000 -0.219927000000000
0.183146000000000  -0.021908500000000 0.470801000000000 
-0.056103000000000 -0.162568000000000 0.147518000000000 
0.088906400000000  -0.127971000000000 0.498597000000000 
-0.103651000000000 0.151659000000000  0.379480000000000 
-0.118656000000000 0.141637000000000  0.334981000000000 
-0.109123000000000 -0.070308700000000 0.498535000000000 
-0.164035000000000 -0.261494000000000 0.220647000000000 
-0.140280000000000 -0.118991000000000 -0.405222000000000
0.057392800000000 0.182610000000000 0.146820000000000
-0.261308000000000 0.193358000000000  0.220889000000000 
0.139617000000000  -0.189782000000000 -0.072788700000000
0.233010000000000  0.124136000000000  -0.097392500000000
-0.185561000000000 0.143004000000000  -0.070847600000000
-0.042707100000000 0.077602200000000  -0.150917000000000
-0.261581000000000 -0.223598000000000 0.014909700000000 
-0.034752300000000 -0.132048000000000 -0.153384000000000
-0.045328100000000 0.039366300000000  0.153516000000000 
0.061604600000000  -0.173276000000000 -0.392977000000000
0.261804000000000 0.186986000000000 0.099199900000000
0.143818000000000  0.182025000000000  -0.066273400000000
-0.041949800000000 0.172167000000000  -0.152415000000000
0.160704000000000  0.261580000000000  -0.118883000000000
0.093694900000000  -0.164745000000000 -0.127509000000000
0.228265000000000  -0.135083000000000 -0.081658200000000
-0.261298000000000 -0.042609900000000 0.196580000000000 
0.200019000000000 0.152551000000000 0.043424600000000
0.035954300000000  -0.099377500000000 -0.152923000000000
-0.218268000000000 0.261566000000000  0.141792000000000 
0.261696000000000  0.071885600000000  -0.213315000000000
0.000834454000000  -0.220071000000000 0.157894000000000 
0.215408000000000  -0.123572000000000 0.098710700000000 
0.157435000000000  -0.196591000000000 0.019219500000000 
-0.171006000000000 0.066322000000000  0.429198000000000 
-0.035059800000000 0.141510000000000  -0.498423000000000
0.186276000000000  0.096851000000000  -0.263328000000000
0.142343000000000  -0.214149000000000 -0.263407000000000
-0.261619000000000 0.157147000000000  -0.109915000000000
-0.261358000000000 0.090040700000000  0.227980000000000 
0.183002000000000 0.008146360000000 0.309194000000000
-0.261275000000000 -0.046638400000000 0.229446000000000 
-0.147782000000000 0.261780000000000  -0.123718000000000
0.069606800000000  -0.261660000000000 0.172245000000000 
0.210396000000000  -0.166634000000000 -0.263453000000000
-0.133328000000000 -0.164169000000000 -0.085512900000000
0.212745000000000  -0.089682600000000 -0.128607000000000
-0.059188800000000 -0.174245000000000 0.356754000000000 
-0.081077200000000 -0.180649000000000 0.134706000000000 
0.067334000000000  0.022701400000000  -0.155876000000000
0.227483000000000  0.077174200000000  -0.263190000000000
0.008277840000000  -0.261563000000000 0.222436000000000 
0.083137500000000  -0.119354000000000 -0.498346000000000
-0.166877000000000 -0.261476000000000 0.230100000000000 
0.133829000000000  0.080228500000000  -0.134164000000000
-0.060862900000000 -0.111985000000000 0.145489000000000 
0.139568000000000  0.119983000000000  -0.451353000000000
0.182438000000000  0.129311000000000  -0.263470000000000
0.048637800000000  -0.099751200000000 0.498584000000000 
-0.114738000000000 -0.261564000000000 0.210760000000000 
-0.007755960000000 0.261816000000000  0.198968000000000 
0.166476000000000 0.127704000000000 0.094720600000000
0.019180500000000  -0.032737800000000 0.498601000000000 
0.185842000000000  -0.100462000000000 -0.263240000000000
0.092845500000000  -0.157921000000000 -0.315535000000000
0.214749000000000  0.174025000000000  -0.263545000000000
0.261598000000000  -0.098684100000000 0.188791000000000 
0.213140000000000  -0.133644000000000 -0.263426000000000
-0.088256500000000 0.196915000000000  -0.263505000000000
0.190474000000000  -0.145252000000000 -0.263439000000000
0.158796000000000  0.261484000000000  -0.220535000000000
-0.162991000000000 0.088340000000000  0.130501000000000 
0.067123800000000  -0.087245800000000 -0.142572000000000
-0.049299300000000 0.136943000000000  0.498588000000000 
0.154144000000000  -0.213464000000000 0.035213400000000 
-0.091320000000000 0.076577800000000  0.498570000000000 
0.261753000000000  0.176456000000000  -0.079871300000000
-0.171882000000000 -0.065786900000000 0.356452000000000 
0.098876800000000  0.231124000000000  -0.124197000000000
-0.005393870000000 -0.072380000000000 -0.498321000000000
0.137186000000000  -0.094657000000000 0.125759000000000 
-0.241278000000000 -0.175496000000000 -0.263685000000000
0.168235000000000  -0.261756000000000 -0.122038000000000
0.162483000000000  -0.084963400000000 0.301051000000000 
-0.221352000000000 0.147123000000000  -0.064170900000000
0.013467100000000  -0.074344000000000 0.155540000000000 
-0.090241200000000 0.159338000000000  -0.437454000000000
-0.101881000000000 -0.209137000000000 -0.263500000000000
-0.261618000000000 0.122501000000000  -0.163395000000000
-0.220738000000000 -0.075604300000000 0.137035000000000 
0.068654300000000  -0.120828000000000 0.141495000000000 
-0.028427300000000 -0.152020000000000 -0.155080000000000
0.130613000000000  -0.222154000000000 -0.086798400000000
-0.261488000000000 0.218559000000000  0.042638600000000 
0.221505000000000  -0.022410700000000 0.155300000000000 
-0.014759100000000 0.231703000000000  -0.263245000000000
-0.083801000000000 0.261731000000000  0.182161000000000 
0.027100200000000  0.034282900000000  -0.498342000000000
-0.048655300000000 -0.177475000000000 0.355512000000000 
0.137258000000000 0.261757000000000 0.192217000000000
-0.261493000000000 0.213393000000000  0.033095500000000 
0.162398000000000 0.084712900000000 0.311697000000000
0.093637900000000  -0.148736000000000 -0.127961000000000
0.084355600000000 0.080922200000000 0.132587000000000
-0.052743200000000 0.175754000000000  -0.334180000000000
0.156028000000000  0.097293900000000  -0.434293000000000
0.181513000000000  -0.129923000000000 -0.263418000000000
0.189032000000000  0.261660000000000  -0.035755600000000
