2.870720e-01 -7.455047e-02 -8.636778e-02 -6.486684e-05 1.334958e-04 -3.906882e-05
-3.056560e-01 2.294755e-01 -4.975823e-02 -4.710286e-06 1.304535e-04 -1.677144e-05
6.358796e-02 5.215477e-02 -2.344028e-03 -1.175720e-04 -8.822204e-05 5.542576e-06
-1.529553e-01 2.333337e-01 7.616637e-02 8.697029e-06 1.053528e-04 2.491782e-05
-7.217413e-02 1.977851e-02 -3.176446e-02 1.483273e-04 -3.534749e-05 -1.298855e-05
-4.506404e-01 -1.492500e-01 -1.035803e-01 -1.069200e-04 -6.589378e-05 -5.540543e-05
2.997833e-01 2.159183e-01 -3.812281e-02 5.065076e-06 1.313886e-04 -6.142174e-06
-4.691627e-01 8.354235e-02 -1.015888e-01 -1.222667e-04 4.475644e-05 -5.662739e-05
9.422883e-02 6.422983e-02 -1.455667e-01 -7.273289e-05 -2.009273e-05 -8.964357e-05
4.729466e-01 -1.096928e-01 -2.664662e-02 8.446609e-05 -3.085328e-05 -4.201254e-06
-7.381985e-02 8.654108e-03 -9.604726e-02 1.426867e-04 -1.468921e-05 -4.163420e-05
1.677293e-01 2.167972e-01 6.304730e-02 -7.998710e-06 9.580249e-05 1.239567e-05
1.084273e-02 -1.437711e-01 -1.584255e-01 -2.436835e-06 2.241478e-05 -1.434210e-04
8.378705e-02 3.472303e-02 -1.253438e-01 -1.386233e-04 -3.643664e-05 -4.809271e-05
-3.788125e-01 -8.616083e-02 1.492075e-01 1.628253e-05 1.555746e-05 1.263346e-04
3.576653e-01 -7.088981e-03 1.419414e-01 -8.780280e-05 5.230789e-06 6.186608e-05
1.813898e-01 1.750380e-03 -4.738118e-02 8.332791e-05 -6.587230e-06 -6.160067e-06
-2.483708e-01 9.191869e-02 1.081658e-01 -1.029277e-05 -1.186207e-04 4.444617e-05
-4.899647e-01 -9.933744e-03 -9.653352e-02 -1.477816e-04 -7.289618e-06 -5.952026e-05
-4.822878e-01 -1.177302e-01 -6.655741e-02 -1.321291e-04 -4.835957e-05 -3.740760e-05
-4.916360e-01 -5.648217e-02 -5.866664e-02 -1.203458e-04 -2.309893e-05 -3.099996e-05
-2.121587e-01 6.056665e-02 1.523649e-02 -3.416069e-05 -8.043312e-05 8.481822e-06
-2.507477e-01 1.303793e-01 -1.575763e-01 -1.011337e-05 -6.415868e-05 -1.269817e-04
-1.804829e-01 -7.833527e-02 1.418471e-01 -5.553053e-05 2.914994e-05 4.767956e-05
-1.876485e-01 1.127124e-01 1.596918e-01 -2.482931e-05 -5.229992e-05 1.368362e-04
-1.425728e-01 -7.346400e-03 1.596295e-01 -9.503197e-05 1.784919e-05 9.816444e-05
2.957635e-01 -2.154783e-01 -6.206563e-02 3.932990e-06 -1.091551e-04 -1.408755e-05
2.330004e-01 -6.972761e-02 5.435779e-02 2.867143e-05 1.201880e-04 2.348259e-05
-5.372572e-02 -1.229307e-01 1.537167e-01 2.586301e-05 4.583782e-05 1.020064e-04
-2.972378e-01 7.179488e-02 4.368644e-02 7.015206e-05 -1.439993e-04 4.123103e-05
-4.476480e-01 1.624950e-01 7.217379e-03 -7.143729e-05 4.365379e-05 4.009654e-06
2.506537e-01 2.012047e-01 1.421206e-01 -6.879820e-07 8.246115e-05 4.945941e-05
-6.106024e-02 5.598699e-02 7.507371e-02 9.712093e-05 -6.798832e-05 3.119680e-05
-3.205457e-01 -1.593129e-01 -1.518979e-01 -5.174316e-06 -2.179295e-05 -1.469580e-04
-3.062560e-01 2.238313e-01 4.037352e-02 -2.828083e-06 7.771057e-05 9.883791e-06
-3.358189e-01 4.683119e-02 9.990499e-02 1.029501e-04 -4.469659e-05 4.923659e-05
3.357729e-01 -3.508578e-02 -6.452081e-02 -1.073131e-04 2.639107e-05 -2.840954e-05
2.062037e-01 -7.168813e-02 4.567251e-02 4.210216e-05 9.196291e-05 3.504573e-06
8.471021e-02 -1.460612e-01 -1.622336e-01 -1.356342e-05 -3.915258e-05 -1.275423e-04
-2.422693e-01 -7.168037e-02 5.996078e-02 3.345754e-06 1.140632e-04 2.188320e-05
2.534669e-01 -1.761784e-01 1.602642e-01 -1.716113e-06 -4.888536e-05 1.353190e-04
-2.497828e-01 1.730831e-01 1.627807e-01 -9.160314e-07 4.619402e-05 1.002489e-04
-2.303510e-01 -1.594882e-01 1.579888e-01 -3.988302e-06 -1.490229e-05 1.181547e-04
-3.485804e-01 -2.259173e-01 7.280158e-02 -2.329942e-05 -8.008522e-05 1.261034e-05
2.158546e-01 7.464590e-02 -8.890184e-02 4.221385e-05 -1.161034e-04 -2.245040e-05
7.137090e-02 1.369288e-01 1.733804e-01 -1.521029e-05 1.188654e-06 1.126969e-04
-4.811074e-01 -6.501592e-02 -8.763549e-02 -1.455257e-04 -3.451380e-05 -4.606370e-05
1.431547e-01 -1.934997e-01 1.503398e-01 -7.667665e-06 -1.143943e-04 1.015049e-04
1.505277e-01 -6.784043e-02 1.649594e-01 3.700078e-05 1.630058e-05 6.991976e-05
-1.357711e-01 -4.097023e-02 1.520365e-01 -6.967271e-05 3.948222e-06 1.108441e-04
4.404536e-01 -1.620839e-02 1.580218e-01 5.760999e-05 -3.766488e-06 1.201164e-04
-1.521931e-01 -2.786199e-02 -1.529104e-01 -6.101043e-05 8.070987e-06 -8.325876e-05
2.509682e-01 -2.188622e-01 9.767592e-02 -3.086090e-06 -9.520100e-05 2.244423e-05
-1.529679e-01 2.270121e-01 8.544866e-03 8.543881e-06 1.413979e-04 -6.266044e-06
3.276168e-01 1.428083e-01 -1.567798e-01 -3.279179e-06 2.870719e-06 -9.156526e-05
-1.698064e-03 -2.221663e-01 3.436702e-02 3.571919e-06 -1.127055e-04 6.858491e-06
4.797261e-01 3.790673e-02 -8.165648e-02 9.751901e-05 6.170562e-06 -2.530570e-05
8.130893e-02 2.014522e-01 -1.314303e-01 -4.834181e-06 9.420353e-05 -5.727708e-05
4.827752e-02 5.516241e-02 -6.242147e-02 -5.055398e-05 -6.891024e-05 -8.722085e-06
-1.523744e-01 -2.250116e-01 -9.796430e-04 7.111117e-06 -8.568935e-05 -3.532725e-06
-4.232313e-01 -1.986601e-01 6.555567e-02 -5.208094e-05 -9.458628e-05 2.861870e-05
-8.481443e-03 -1.307147e-01 1.662168e-01 -6.912194e-06 2.239041e-05 1.451572e-04
4.798347e-01 6.423330e-02 -9.149428e-02 1.308036e-04 2.600665e-05 -3.496378e-05
2.918064e-01 -6.834270e-02 6.289402e-02 -5.017904e-05 1.019885e-04 2.877448e-05
4.009010e-01 -1.754465e-02 1.484371e-01 -2.090526e-05 2.352074e-06 1.234745e-04
3.750231e-01 -3.775630e-02 1.444605e-01 -8.214121e-05 2.149303e-05 9.344633e-05
-3.402422e-01 1.988873e-02 -9.347681e-02 1.350070e-04 -2.997175e-05 -3.648702e-05
-8.635114e-02 -2.105691e-01 5.390754e-02 3.252217e-06 -8.086928e-05 1.021292e-05
4.780466e-01 1.379144e-02 1.108063e-01 1.281268e-04 1.828387e-06 6.327745e-05
-6.950369e-02 1.981467e-01 1.170239e-01 3.468367e-06 1.286981e-04 4.881553e-05
-2.749665e-01 2.276518e-01 -1.966699e-02 3.576757e-06 1.034473e-04 -4.194944e-06
3.562805e-01 -2.031217e-02 -1.400137e-01 -9.769605e-05 4.013919e-06 -8.385935e-05
1.941098e-01 5.758081e-02 -4.293246e-02 5.862357e-05 -4.668345e-05 -9.362170e-06
-1.656826e-01 -2.173686e-01 -7.290993e-02 5.739643e-06 -6.968306e-05 -1.636183e-05
-4.620665e-01 6.975726e-02 1.114310e-01 -1.186168e-04 3.045313e-05 6.104347e-05
1.855254e-01 -4.051722e-02 -4.411800e-02 7.008533e-05 3.046636e-05 -6.378188e-06
3.217450e-01 -1.649303e-01 -1.689510e-01 3.232184e-06 -1.307651e-05 -8.083728e-05
1.787744e-01 2.209116e-01 9.274353e-02 -1.099394e-05 1.331932e-04 3.150588e-05
1.026829e-01 -1.372622e-01 1.608335e-01 -7.870012e-06 -1.625424e-05 1.065920e-04
4.300281e-01 1.325164e-01 1.271097e-01 8.236262e-05 5.129012e-05 7.182781e-05
4.056195e-01 -1.563663e-01 -1.374400e-01 5.618378e-05 -6.636610e-05 -9.421890e-05
3.912885e-01 -1.610494e-01 -1.430928e-01 4.613145e-05 -6.469412e-05 -1.157175e-04
-1.008989e-01 -2.092709e-01 9.644356e-02 4.094101e-06 -7.397452e-05 2.456416e-05
1.489137e-01 1.495231e-01 1.786108e-01 1.066798e-05 2.252226e-05 1.245476e-04
2.193324e-01 2.189951e-01 -7.911451e-02 -3.402491e-06 9.606760e-05 -2.234821e-05
-6.505977e-02 -1.918757e-01 1.306203e-01 5.224259e-06 -8.132611e-05 3.489786e-05
-3.450172e-01 7.637893e-02 -1.291353e-01 5.613250e-05 -3.902165e-05 -8.138222e-05
2.258266e-01 -7.888780e-02 -1.077374e-01 3.327226e-05 1.298734e-04 -4.872297e-05
1.752960e-01 -1.413747e-02 7.674381e-02 1.006550e-04 7.166529e-06 1.459585e-05
-8.464523e-02 -2.028677e-01 1.088435e-01 4.928292e-06 -1.132612e-04 4.052116e-05
2.027870e-01 -6.838723e-02 1.481880e-02 6.171899e-05 8.072786e-05 3.410177e-06
7.669279e-02 -2.026627e-01 1.254578e-01 -6.613422e-06 -1.185184e-04 7.225475e-05
-2.570931e-01 -1.551217e-01 1.613255e-01 -4.324616e-06 -1.939120e-05 1.439096e-04
-1.855686e-01 7.048674e-02 -1.233090e-01 -8.679250e-05 -1.193685e-04 -5.105103e-05
1.564997e-01 6.144479e-02 1.543733e-01 7.056759e-05 -3.319251e-05 8.544346e-05
-1.268797e-01 -2.054486e-01 1.102265e-01 6.978555e-06 -1.138407e-04 4.242804e-05
4.302846e-01 -1.932733e-01 1.985254e-03 5.813567e-05 -6.064920e-05 3.198912e-06
-7.062225e-02 -2.125655e-02 4.019020e-03 1.420108e-04 3.257494e-05 3.840361e-06
-4.661872e-01 -1.180755e-01 -8.384629e-02 -1.121129e-04 -4.120125e-05 -3.199047e-05
-1.274080e-01 1.830969e-01 1.620696e-01 2.692577e-06 9.246680e-05 8.646835e-05
-2.888012e-01 -5.931051e-02 1.254878e-02 5.281102e-05 6.627560e-05 4.043319e-06
-4.480807e-01 -1.644597e-01 -3.147651e-02 -6.909440e-05 -4.222602e-05 -3.883938e-06
1.748288e-01 1.530611e-02 3.572166e-02 1.226763e-04 -1.592015e-05 6.866955e-06
-4.758454e-02 -7.195967e-02 -1.008366e-01 5.662936e-05 7.226828e-05 -3.252278e-05
2.010690e-01 -8.299248e-02 1.221739e-01 4.348501e-05 8.238025e-05 5.567052e-05
-2.119510e-01 -2.151229e-01 9.255909e-02 8.708636e-06 -1.065484e-04 2.495453e-05
-3.550511e-01 7.733560e-02 1.354559e-01 9.613838e-05 -5.951058e-05 1.255121e-04
1.945664e-01 2.156389e-01 -6.761640e-02 -8.943228e-06 1.066356e-04 -2.470115e-05
-4.614351e-01 -1.228261e-01 7.696474e-02 -9.058418e-05 -3.328397e-05 2.584254e-05
3.206150e-01 -4.382218e-02 -5.242275e-02 -1.284653e-04 5.870697e-05 -2.064944e-05
-5.048532e-02 6.951839e-02 -5.955718e-02 6.684653e-05 -8.900892e-05 -1.424994e-05
1.930661e-01 -5.361069e-02 2.802139e-03 9.859626e-05 7.684516e-05 2.894167e-06
3.667700e-01 -1.279543e-01 1.566428e-01 1.198289e-05 -1.332634e-05 1.244927e-04
2.986184e-01 -1.411931e-01 1.573884e-01 1.852085e-06 1.921624e-05 1.137730e-04
2.162821e-01 7.312100e-02 4.709062e-03 2.696005e-05 -7.990814e-05 -5.354489e-07
-3.259251e-02 -2.192605e-01 2.273575e-02 2.514658e-06 -1.516683e-04 4.365855e-06
4.776168e-01 -1.261360e-01 6.795133e-03 8.703617e-05 -3.179317e-05 4.351059e-06
2.793291e-01 2.246581e-01 -6.854598e-02 5.311402e-06 1.363512e-04 -3.202624e-05
1.094098e-01 6.509763e-02 1.526167e-01 -6.280068e-05 -1.316455e-05 9.246928e-05
5.373278e-02 -8.793973e-02 1.532544e-01 -3.429867e-05 4.766892e-05 6.910181e-05
-6.061055e-02 -1.502776e-01 1.689339e-01 4.441909e-06 -1.052425e-05 6.677043e-05
-4.351818e-01 1.377831e-01 1.242147e-01 -6.777515e-05 4.111957e-05 5.696461e-05
5.301773e-02 -7.826011e-02 -1.077508e-01 -5.631473e-05 7.758728e-05 -3.752409e-05
-6.581714e-02 2.143716e-01 -4.192290e-02 4.878216e-06 1.427372e-04 -1.904374e-05
-2.128160e-01 -1.972760e-01 1.447530e-01 6.291384e-06 -1.000861e-04 1.223771e-04
-4.902991e-01 -5.019774e-02 6.390417e-02 -9.255740e-05 -1.737588e-05 1.490702e-05
1.199385e-01 -1.671480e-01 1.627144e-01 -2.972512e-06 -5.202451e-05 9.752990e-05
1.627133e-01 4.038704e-02 1.394363e-01 7.289387e-05 -2.875279e-05 3.546675e-05
-6.989251e-02 -2.179873e-01 -5.102683e-02 4.942950e-06 -1.377963e-04 -1.769168e-05
4.586682e-01 -1.522117e-01 -3.928005e-02 6.794803e-05 -4.152032e-05 -1.195776e-05
1.570739e-01 2.948727e-02 1.240640e-01 8.784650e-05 -1.510108e-05 4.120673e-05
2.792642e-01 -2.240209e-01 6.819710e-02 2.915374e-06 -7.632566e-05 1.786806e-05
1.694311e-01 5.651621e-02 1.324626e-01 8.752169e-05 -5.835135e-05 5.328569e-05
4.697698e-01 -1.001447e-01 8.687203e-02 1.300358e-04 -4.112919e-05 5.121528e-05
-1.824155e-01 8.500465e-02 1.546115e-01 -4.900487e-05 -5.741906e-05 9.352644e-05
3.851815e-01 -2.146998e-01 2.068033e-02 3.293722e-05 -1.072808e-04 4.971743e-06
-4.336855e-01 -1.716759e-01 -3.457745e-02 -5.396085e-05 -5.769602e-05 -4.311083e-06
1.818701e-01 -2.214862e-01 -6.244201e-02 -9.851379e-06 -1.178927e-04 -1.525755e-05
3.354242e-01 2.250373e-01 4.968093e-02 1.720156e-05 1.182681e-04 1.580520e-05
5.239544e-02 -5.521169e-02 -2.839800e-02 -9.304035e-05 7.950058e-05 -1.348104e-05
-3.364883e-01 3.854596e-02 -1.111304e-01 8.858004e-05 -3.878223e-05 -4.253424e-05
4.490589e-01 1.399970e-01 -1.089526e-01 9.398961e-05 5.807644e-05 -4.888716e-05
-4.575717e-01 9.009264e-02 -1.217247e-01 -1.128716e-04 4.224372e-05 -8.890425e-05
-3.726087e-01 1.989503e-01 9.932363e-02 -6.213685e-05 1.276885e-04 6.610204e-05
-3.634057e-01 -1.904698e-01 -1.242717e-01 -5.437004e-05 -1.224496e-04 -9.188111e-05
7.723705e-02 1.376737e-01 1.762006e-01 -1.521029e-05 1.188654e-06 1.126969e-04
-7.730856e-02 -3.580623e-02 1.139269e-01 1.110025e-04 2.948255e-05 4.243580e-05
-2.101149e-01 1.529173e-01 -1.674444e-01 -1.293336e-05 6.914207e-06 -1.443369e-04
4.895776e-01 5.937312e-02 6.775846e-02 1.408403e-04 2.788691e-05 3.744148e-05
4.262178e-01 1.447331e-01 1.278423e-01 6.935579e-05 4.027195e-05 8.845291e-05
-1.623291e-01 -2.078205e-02 1.043309e-01 -1.071035e-04 1.979377e-05 2.399447e-05
3.829163e-01 4.739566e-02 1.520180e-01 -4.794051e-05 -1.259967e-05 1.175291e-04
-3.387956e-01 1.859787e-01 1.458921e-01 -2.215513e-05 8.633621e-05 9.600732e-05
-4.405115e-01 -1.809005e-01 5.336771e-02 -5.512619e-05 -5.644480e-05 1.193482e-05
4.445909e-01 1.553345e-01 7.847816e-02 1.052201e-04 6.465370e-05 3.386187e-05
2.438030e-01 -1.194074e-01 -1.504398e-01 1.350734e-05 6.655008e-05 -7.688614e-05
-3.290523e-03 1.948159e-01 -1.089604e-01 6.337754e-07 1.074605e-04 -3.615247e-05
3.468131e-01 2.193027e-01 -6.767592e-02 2.149087e-05 1.468168e-04 -3.573219e-05
4.904136e-01 5.579962e-02 -3.726637e-02 9.764494e-05 1.932092e-05 -1.326978e-05
-9.918233e-02 -4.663725e-02 1.562298e-01 8.719566e-05 2.552380e-05 9.904089e-05
4.062785e-01 -1.561876e-01 -1.429459e-01 5.474539e-05 -5.950397e-05 -9.804775e-05
4.030025e-01 9.025540e-02 1.671060e-01 7.173503e-06 9.138420e-06 1.708692e-04
3.280836e-01 -1.814048e-02 3.348966e-02 -8.219472e-05 1.363815e-05 6.001723e-06
4.038997e-01 2.103670e-01 1.788614e-02 5.823442e-05 1.056149e-04 5.616114e-06
1.257527e-01 -4.274416e-02 1.687123e-01 -1.652738e-05 9.141857e-06 1.186424e-04
5.015731e-01 4.889936e-02 5.336832e-03 1.384429e-04 8.786762e-06 6.540213e-06
3.120561e-01 2.305480e-01 -2.722092e-02 3.223845e-06 8.997747e-05 -3.714356e-06
2.695579e-01 -2.201082e-01 -7.232916e-02 5.147668e-06 -1.791522e-04 -4.240785e-05
2.749827e-01 -1.647068e-01 -1.524815e-01 3.273958e-06 -1.562263e-05 -1.088059e-04
-4.224387e-01 -5.951285e-03 1.587482e-01 -1.868266e-05 -1.201793e-06 1.222177e-04
-5.047863e-01 -8.646058e-03 -6.880948e-02 -1.080614e-04 -7.040103e-06 -2.729530e-05
3.779959e-01 2.217107e-01 -1.530318e-02 3.362290e-05 1.094817e-04 -5.073135e-06
-1.272944e-01 1.777110e-01 -1.446599e-01 3.289196e-06 6.033064e-05 -7.284086e-05
-1.639865e-01 3.968927e-03 6.935998e-02 -1.412911e-04 2.170693e-06 1.585893e-05
2.051936e-01 2.315555e-01 -1.125448e-02 -1.163596e-05 1.391848e-04 -5.609649e-06
2.700540e-01 2.176662e-01 1.007738e-01 -2.270680e-06 8.468514e-05 2.993275e-05
-3.216445e-02 8.492464e-02 -1.265158e-01 4.617885e-05 -1.054986e-04 -4.276003e-05
2.604391e-01 -1.926505e-01 -1.389101e-01 1.456265e-05 -1.309468e-04 -9.185665e-05
-4.417467e-01 -7.882313e-02 -1.467301e-01 -7.658836e-05 -2.673010e-05 -9.992073e-05
-1.729528e-01 1.053065e-02 1.158771e-01 -9.663823e-05 -9.345500e-06 3.467399e-05
-8.799857e-02 -1.203335e-01 1.691018e-01 1.490075e-05 5.342806e-06 8.620559e-05
-4.958796e-01 2.951747e-02 4.178959e-02 -9.666251e-05 6.082901e-06 1.372466e-05
4.439456e-02 1.218758e-01 1.608813e-01 -2.716288e-05 -6.170738e-05 1.026916e-04
-2.027016e-01 -1.322776e-01 -1.591359e-01 -1.028998e-05 3.720633e-05 -9.587865e-05
-1.651524e-01 3.641670e-02 1.319021e-01 -1.059213e-04 -4.433127e-05 7.679383e-05
-7.137573e-02 -3.689881e-02 1.111426e-01 1.354360e-04 6.621069e-05 3.637667e-05
-1.586801e-01 -2.222153e-01 -9.022955e-02 9.124547e-06 -1.104196e-04 -2.611175e-05
4.691615e-01 -1.203323e-01 -3.344788e-02 7.919208e-05 -2.908388e-05 -1.188988e-05
-6.220020e-03 -1.984001e-01 1.254198e-01 2.843141e-06 -1.064710e-04 6.500813e-05
7.693520e-02 -1.946374e-01 1.304068e-01 -5.164666e-06 -9.692507e-05 5.914185e-05
5.759266e-02 -5.428931e-02 -4.135860e-02 -6.755493e-05 5.045302e-05 -1.493422e-05
2.064389e-01 2.310690e-01 -3.223173e-02 -8.049242e-06 8.727714e-05 -8.509367e-06
1.626232e-01 -2.878093e-02 -1.177912e-01 9.521484e-05 2.903517e-05 -3.062072e-05
-2.000000e-01 -1.430698e-01 1.727649e-01 -1.967158e-05 -2.947651e-06 1.226388e-04
-2.254458e-01 2.314267e-01 -8.171854e-02 6.186352e-06 7.579041e-05 -1.774728e-05
-6.636655e-02 -4.710710e-02 2.031697e-02 1.018407e-04 4.193177e-05 3.383702e-06
-2.945736e-01 -7.992260e-02 -1.023655e-01 5.837626e-05 1.282341e-04 -5.630072e-05
-1.581445e-01 -1.494129e-02 1.385593e-01 -9.502860e-05 7.770256e-06 6.770320e-05
-5.819529e-02 3.432105e-02 2.109825e-02 1.165904e-04 -6.869793e-05 9.513834e-06
-1.792672e-01 2.083737e-03 -2.653495e-02 -9.655815e-05 3.534693e-06 -6.003195e-06
-2.651579e-01 -2.390599e-01 -5.815165e-03 2.399911e-06 -1.051499e-04 -2.970323e-06
7.107806e-02 -1.219582e-01 1.675416e-01 -1.666197e-05 2.293790e-05 1.045666e-04
8.879774e-02 2.208040e-01 -4.315467e-02 -4.490288e-06 2.172550e-04 -2.785491e-05
3.047172e-01 -5.806315e-02 -2.170918e-02 -8.994678e-05 8.466861e-05 -2.783005e-05
-2.566339e-01 -9.447965e-02 1.061920e-01 -7.726010e-06 1.244162e-04 4.789496e-05
1.832250e-02 -6.896088e-02 2.044994e-02 -3.262776e-05 1.297383e-04 4.726732e-06
4.711813e-01 1.038339e-01 -1.107010e-01 1.148303e-04 4.239078e-05 -5.303699e-05
1.247606e-01 -1.449100e-01 -1.593613e-01 -9.077451e-06 -3.091311e-05 -1.487048e-04
3.225226e-01 -2.318217e-02 3.332854e-02 -7.781819e-05 1.248905e-05 4.450219e-06
-5.273136e-02 1.443619e-01 1.620034e-01 5.734380e-06 1.150050e-05 1.174755e-04
-9.943186e-03 -2.056435e-01 -9.216679e-02 -7.339501e-07 -6.418706e-05 -1.643684e-05
-1.092834e-01 -2.245714e-01 1.035338e-01 3.623013e-06 -7.437178e-05 2.645469e-05
-2.345977e-01 -2.274844e-01 -2.042169e-03 4.496339e-06 -1.331604e-04 -5.392260e-06
-5.001580e-01 -4.132186e-02 6.429392e-02 -9.893166e-05 -5.693647e-06 2.436931e-05
9.967932e-02 -1.937290e-01 -1.474262e-01 -5.074598e-07 -7.292156e-05 -7.514376e-05
1.769946e-01 -1.035109e-02 -9.210259e-03 1.421453e-04 1.488383e-05 3.337873e-06
-1.256699e-01 1.731846e-01 -1.471872e-01 1.813021e-06 6.662325e-05 -1.235950e-04
-4.868367e-01 2.610069e-04 -5.502729e-02 -9.835076e-05 -5.799442e-06 -1.398039e-05
-3.509599e-01 1.891811e-01 1.250654e-01 -2.000148e-05 8.402218e-05 7.361609e-05
1.880286e-01 1.765271e-02 -4.791395e-02 1.157483e-04 -1.764647e-05 -7.225727e-06
4.644947e-01 -1.343737e-01 -9.262133e-02 1.008853e-04 -6.882850e-05 -4.681358e-05
-1.390430e-01 -1.427659e-01 -1.713773e-01 -4.806451e-06 -1.053315e-05 -8.989415e-05
5.922482e-02 2.193444e-01 5.972307e-02 -3.883922e-06 1.130707e-04 1.506541e-05
4.002141e-01 1.607812e-01 -1.454219e-01 4.469920e-05 5.353829e-05 -8.737861e-05
4.266416e-01 1.984854e-01 3.530013e-02 6.390551e-05 9.287026e-05 7.493609e-06
3.463164e-02 -6.233790e-02 -5.331374e-02 -4.725800e-05 1.248297e-04 -1.131443e-05
4.755155e-01 6.643496e-02 -1.211829e-01 1.009164e-04 2.042839e-05 -7.174144e-05
-5.007508e-01 3.408311e-03 2.607220e-02 -8.082168e-05 -4.640661e-06 1.021782e-05
4.880015e-01 1.039819e-01 2.047457e-02 9.019169e-05 3.170616e-05 4.423513e-06
2.765048e-01 7.641871e-02 6.917253e-02 -3.177961e-05 -1.064506e-04 3.007886e-05
-2.795379e-01 1.309356e-01 1.544164e-01 7.910991e-06 -5.177169e-05 8.857592e-05
1.816145e-01 1.028707e-01 -1.657715e-01 3.081793e-05 -6.121076e-05 -1.113334e-04
1.544183e-01 -1.155930e-01 1.704435e-01 1.631361e-05 7.818269e-06 1.246966e-04
-3.717778e-01 -5.016068e-02 -1.587316e-01 3.814112e-05 1.168064e-05 -7.382630e-05
4.507546e-01 7.642371e-02 -1.176944e-01 1.019238e-04 2.178799e-05 -7.174544e-05
-1.308868e-02 -1.531349e-01 -1.583215e-01 -3.654735e-08 -2.578074e-05 -1.469880e-04
-6.257556e-02 1.833472e-01 1.475708e-01 9.671415e-07 6.527180e-05 7.594559e-05
4.634461e-01 -1.397573e-01 1.689344e-02 7.558894e-05 -4.618265e-05 4.225894e-06
3.786353e-01 -2.286085e-01 -3.497216e-03 3.305139e-05 -1.076781e-04 -5.007265e-06
4.856623e-01 9.469841e-02 2.291698e-02 8.463874e-05 3.088979e-05 4.603459e-06
2.921154e-01 -2.339107e-01 -4.577314e-02 4.375811e-06 -1.215292e-04 -1.567441e-05
3.782390e-01 2.030745e-01 -7.788771e-02 5.013248e-05 1.336296e-04 -3.648360e-05
1.910659e-01 -4.838372e-02 -5.615744e-02 1.106741e-04 8.200415e-05 -1.478605e-05
9.689502e-02 4.654974e-02 1.566210e-01 -5.351205e-05 -7.090774e-06 1.014986e-04
3.450387e-01 2.242913e-01 -4.812095e-03 1.883698e-05 1.219270e-04 -5.391852e-06
-3.813877e-01 -1.987358e-01 1.044908e-01 -5.516778e-05 -1.118356e-04 4.808874e-05
1.165515e-01 -9.321203e-03 -1.567278e-01 -5.360560e-05 4.194435e-07 -7.230042e-05
6.793389e-02 -4.884892e-02 1.899334e-02 -1.448344e-04 8.308217e-05 9.344537e-06
4.382342e-01 -6.707505e-02 1.460154e-01 7.285007e-05 -1.487204e-05 8.600431e-05
-1.426286e-01 -2.216266e-01 2.367301e-02 6.078003e-06 -9.485219e-05 3.819701e-06
4.921012e-01 2.771636e-02 -9.553789e-02 1.087079e-04 7.236658e-06 -2.871051e-05
-7.521413e-02 -2.771992e-02 7.673474e-02 9.103927e-05 2.015072e-05 1.442836e-05
1.468897e-01 1.461269e-02 1.590755e-01 7.941518e-05 -9.468914e-06 1.061619e-04
5.680591e-02 2.036393e-01 9.767216e-02 -2.776828e-06 1.355155e-04 4.833254e-05
-2.810004e-02 2.211658e-01 5.058535e-02 -1.389527e-09 1.227507e-04 1.494893e-05
-6.963936e-02 -3.706769e-02 -5.323391e-02 1.019095e-04 4.372666e-05 -7.161271e-06
-4.168611e-01 -1.903271e-01 4.747005e-02 -7.368069e-05 -7.911123e-05 1.680982e-05
1.509559e-01 -2.308543e-01 -2.865585e-02 -6.883967e-06 -8.291795e-05 -1.073323e-05
2.977796e-01 6.680669e-02 4.111481e-02 -4.967545e-05 -1.084227e-04 1.753365e-05
-1.654756e-01 -1.180696e-02 1.387229e-01 -1.129567e-04 1.354822e-06 5.488284e-05
-4.148340e-01 2.013822e-01 -3.736811e-02 -5.034069e-05 9.132095e-05 -1.513858e-05
1.126764e-01 1.669278e-01 1.605770e-01 -2.500902e-06 7.395467e-05 1.317595e-04
-3.374215e-01 -3.504166e-02 1.117494e-01 7.833620e-05 3.106926e-05 3.835029e-05
6.570108e-02 1.706432e-01 1.632535e-01 -1.025077e-05 5.597456e-05 1.190895e-04
-4.448915e-01 -4.365087e-02 1.423474e-01 -8.374100e-05 -1.693619e-05 9.834771e-05
3.482505e-01 1.413630e-02 -6.822104e-02 -1.370364e-04 -1.053123e-05 -3.473309e-05
1.520889e-01 -4.841285e-03 1.468840e-01 8.653074e-05 -8.162368e-08 6.721179e-05
-1.779151e-01 -1.368435e-02 -7.609958e-02 -1.088921e-04 2.054386e-05 -1.015350e-05
-4.532295e-01 3.669723e-02 1.283286e-01 -9.828201e-05 6.439143e-06 6.908892e-05
-2.632195e-01 9.309063e-02 7.732980e-02 5.600764e-06 -1.430496e-04 2.791200e-05
2.598246e-01 8.205559e-02 -7.168201e-02 -7.914701e-06 -1.076428e-04 -2.503715e-05
9.554968e-02 -1.575233e-01 -1.537216e-01 -1.180863e-06 -5.219720e-05 -1.350700e-04
-2.238764e-02 -6.966035e-02 -7.292073e-02 1.843786e-05 7.589397e-05 -1.576365e-05
9.825436e-02 -6.650140e-02 1.517874e-01 -6.264006e-05 2.072025e-05 6.063367e-05
-1.557076e-01 -1.788166e-02 1.277900e-01 -8.917775e-05 1.944817e-05 3.825029e-05
-2.191966e-01 7.424648e-02 4.844231e-02 -3.999827e-05 -9.094762e-05 3.266298e-07
1.143771e-01 1.629400e-01 1.527615e-01 -2.240049e-06 6.767673e-05 1.205394e-04
-4.762122e-01 -3.465707e-02 -8.991122e-02 -1.519665e-04 -4.223570e-06 -4.581311e-05
-3.272650e-01 3.463075e-02 -6.926817e-02 8.438546e-05 -3.319425e-05 -2.538733e-05
1.150830e-01 -1.413496e-01 1.689808e-01 -9.388611e-06 -1.816062e-05 1.172790e-04
1.381372e-01 1.866070e-01 -1.232745e-01 -6.168978e-06 7.554081e-05 -5.352956e-05
1.037007e-01 -2.137406e-01 7.282057e-02 -4.539946e-06 -7.261926e-05 1.649529e-05
-4.569954e-01 7.036210e-02 -1.186063e-01 -9.518472e-05 1.918504e-05 -6.866332e-05
-3.436229e-01 1.087601e-01 1.560690e-01 3.048877e-05 -4.100051e-05 9.099351e-05
-1.627951e-01 -2.104416e-01 -9.080007e-02 8.963504e-06 -1.084684e-04 -2.564725e-05
2.025136e-01 -9.189008e-02 -1.291589e-01 5.279452e-05 6.642494e-05 -5.028501e-05
-3.738662e-01 2.154065e-01 5.144151e-02 -3.154478e-05 1.030905e-04 1.507002e-05
2.985428e-01 1.053274e-01 1.184144e-01 -4.743513e-05 -9.193638e-05 7.028859e-05
-6.205669e-02 -8.839186e-02 -1.476928e-01 5.135306e-05 7.924735e-05 -9.300124e-05
1.837281e-01 -2.016925e-01 -1.253058e-01 -2.421605e-05 -1.200417e-04 -7.056291e-05
1.388181e-01 -2.184530e-01 1.830256e-02 -5.950137e-06 -9.482502e-05 3.999047e-06
-1.893927e-01 -1.871981e-01 1.468706e-01 2.578017e-06 -8.004494e-05 9.920964e-05
9.601859e-02 6.144188e-03 -1.260652e-01 -1.111076e-04 -2.164080e-06 -4.667094e-05
-3.506517e-02 -1.967177e-01 -1.048781e-01 1.347630e-06 -9.396340e-05 -3.393535e-05
1.394888e-01 -1.797779e-01 -1.562748e-01 -5.020851e-06 -8.023102e-05 -1.466508e-04
4.470606e-01 1.632740e-01 7.777183e-02 8.147560e-05 8.643701e-05 3.268462e-05
1.193424e-01 -1.943544e-01 -1.277105e-01 -6.194841e-06 -8.453354e-05 -3.449164e-05
-4.639255e-01 1.089707e-01 1.011726e-01 -1.209190e-04 4.459657e-05 5.554448e-05
5.196247e-02 -2.107097e-01 -1.958787e-02 -2.505265e-06 -9.229647e-05 -3.377208e-06
2.650215e-01 7.505744e-02 7.317129e-02 -1.251301e-05 -1.356092e-04 2.671723e-05
1.036000e-01 -2.152411e-01 -1.014739e-01 -3.330782e-06 -1.355241e-04 -3.494185e-05
1.310628e-01 -2.227376e-01 -1.282206e-02 -6.820334e-06 -1.035638e-04 -4.051522e-06
-4.435437e-01 1.647927e-01 3.922495e-02 -6.850970e-05 4.195902e-05 1.202811e-05
-3.934332e-01 2.176318e-01 -5.917270e-02 -5.061706e-05 9.272835e-05 -1.572795e-05
-4.620737e-01 1.302639e-01 -6.858794e-02 -1.422069e-04 7.922353e-05 -5.030755e-05
-1.542985e-01 -5.421479e-02 -1.466623e-01 -7.956901e-05 3.003736e-05 -6.360283e-05
2.575028e-01 8.649738e-02 7.525085e-02 -6.809980e-06 -1.107895e-04 2.321811e-05
4.185664e-01 -1.567800e-01 -1.127434e-01 5.014540e-05 -6.122788e-05 -4.277859e-05
2.680686e-02 7.186437e-02 -1.151358e-01 -2.628031e-05 -1.014322e-04 -3.564406e-05
-1.876630e-01 -5.535321e-02 3.067142e-02 -1.345512e-04 9.104874e-05 1.266400e-05
-2.753448e-01 2.029598e-01 1.318376e-01 -5.956835e-06 1.135517e-04 7.281332e-05
-6.340684e-02 -4.368754e-02 -7.234028e-02 9.862023e-05 6.081433e-05 -1.641421e-05
-1.174487e-01 1.219709e-01 -1.650455e-01 6.922314e-06 -1.506090e-06 -9.831980e-05
4.921647e-01 -1.658372e-02 -6.317556e-02 9.988402e-05 -6.749391e-06 -1.565291e-05
1.260998e-01 -2.107348e-01 8.011563e-02 -4.801360e-06 -8.519364e-05 2.030611e-05
8.679816e-02 2.107095e-01 6.105709e-02 -4.746718e-06 1.192187e-04 1.516025e-05
9.404476e-02 -3.520059e-02 1.399000e-01 -1.001377e-04 4.289102e-06 5.391750e-05
7.597621e-02 -2.134183e-01 -8.632228e-02 -4.339688e-06 -1.099082e-04 -2.405369e-05
1.007440e-01 6.617571e-02 -1.564282e-01 -6.613084e-05 -4.205614e-05 -1.002273e-04
2.026861e-01 7.447362e-02 8.073282e-02 6.169067e-05 -1.358922e-04 3.043432e-05
2.230766e-01 1.800402e-01 -1.543136e-01 -8.301761e-07 7.686824e-05 -9.018577e-05
-2.424191e-01 2.257585e-01 -6.790564e-03 4.228906e-06 1.149853e-04 -4.315439e-06
7.294807e-02 4.574116e-02 8.949274e-02 -1.369568e-04 -7.160836e-05 2.502824e-05
-1.330063e-01 2.224723e-01 3.390521e-02 6.553517e-06 1.052556e-04 5.065328e-06
1.952746e-01 -2.293377e-01 -5.334297e-03 -8.892066e-06 -1.052363e-04 2.619128e-06
1.302742e-01 -8.220585e-02 -1.653365e-01 5.272236e-06 9.323522e-06 -1.165531e-04
1.454277e-01 -4.741643e-03 -1.434873e-01 1.148400e-04 2.833113e-06 -8.234722e-05
3.235941e-01 1.033194e-01 -1.415883e-01 -2.579476e-05 -4.977150e-05 -6.370894e-05
4.397889e-01 5.098732e-02 -1.491249e-01 6.251235e-05 -8.150139e-08 -1.100010e-04
-3.723344e-01 -8.646465e-02 1.643495e-01 1.096746e-05 8.558962e-06 9.793727e-05
-1.302938e-02 -2.135507e-01 -7.458290e-02 4.902203e-07 -1.125654e-04 -2.362056e-05
4.340588e-02 -1.637205e-01 1.558619e-01 2.853178e-06 -5.486524e-05 9.385955e-05
3.746695e-01 1.107351e-01 -1.658271e-01 -2.049659e-06 1.166108e-05 -1.141944e-04
-2.239704e-01 7.678363e-02 -6.198633e-02 -4.953286e-05 -1.345645e-04 -1.050708e-05
2.839587e-01 8.059745e-02 -6.207569e-02 -3.370457e-05 -1.332787e-04 -1.885544e-05
-1.407653e-01 -1.288383e-01 -1.681409e-01 -5.723180e-06 -8.959254e-06 -9.450976e-05
-1.435469e-01 2.120244e-01 6.479927e-02 5.512534e-06 8.561693e-05 1.970430e-05
3.277814e-01 -1.993451e-01 1.249230e-01 2.302427e-05 -1.065832e-04 7.197230e-05
3.780401e-01 1.936641e-01 1.139459e-01 1.923150e-05 9.563303e-05 5.418199e-05
1.997018e-01 5.056567e-02 2.155362e-02 7.807829e-05 -5.952519e-05 3.135839e-06
4.371153e-01 4.473304e-02 1.433450e-01 4.628502e-05 -1.065339e-07 6.719194e-05
-1.990465e-01 -5.835473e-02 4.743347e-02 -7.866173e-05 1.032895e-04 4.418668e-06
-2.319283e-01 1.833497e-01 1.593802e-01 1.060683e-05 6.898293e-05 1.276905e-04
-3.792054e-01 1.711250e-01 -1.424126e-01 -4.165981e-05 7.598735e-05 -1.016313e-04
3.445758e-01 -4.129876e-02 1.151816e-01 -7.967925e-05 3.444865e-05 6.216876e-05
-3.269161e-01 -1.919578e-01 1.423106e-01 -2.629599e-05 -1.244168e-04 9.254742e-05
-1.748188e-01 1.792358e-01 1.456004e-01 -7.633992e-06 7.901246e-05 1.241879e-04
7.464901e-02 -1.830661e-01 -1.471383e-01 -1.661515e-06 -4.691091e-05 -5.615169e-05
1.947616e-01 7.938443e-02 8.772496e-02 4.738469e-05 -1.142925e-04 2.983211e-05
-1.850195e-02 -2.133558e-01 5.869161e-02 -5.300160e-06 -1.675017e-04 2.583121e-05
1.486333e-01 1.079475e-02 1.487088e-01 8.353839e-05 -1.120830e-05 6.567791e-05
-4.652663e-01 -1.171104e-01 8.822909e-02 -1.153557e-04 -4.684836e-05 4.050392e-05
2.984157e-01 -7.984809e-02 -8.178825e-02 -8.404570e-05 1.009546e-04 -4.525872e-05
-7.635897e-02 -1.390864e-02 1.904058e-02 1.420108e-04 3.257494e-05 3.840361e-06
3.191137e-01 1.013296e-02 9.957366e-03 -9.872085e-05 -7.934585e-06 4.491872e-06
-4.544065e-01 -1.524367e-01 8.124124e-02 -1.477827e-04 -9.050016e-05 4.712882e-05
-8.417149e-02 3.817028e-02 1.239827e-01 9.445379e-05 -3.184370e-05 4.723762e-05
4.591638e-01 6.810461e-02 1.318175e-01 8.492578e-05 2.455466e-05 7.454411e-05
4.626580e-01 1.524917e-01 4.188940e-02 1.057829e-04 6.523194e-05 1.480425e-05
4.266578e-01 3.840793e-02 1.638086e-01 3.777401e-05 7.770961e-06 8.093632e-05
4.709771e-01 -1.153768e-01 6.208337e-02 8.571032e-05 -3.137642e-05 1.337801e-05
-2.114960e-02 6.741258e-02 -1.658548e-02 2.640928e-05 -1.055003e-04 3.245025e-06
-3.387272e-01 -6.493238e-02 1.411366e-01 5.878890e-05 4.023332e-05 8.484329e-05
4.981113e-01 4.600081e-02 4.991172e-02 8.963337e-05 5.646805e-06 1.273929e-05
-1.399287e-01 -2.067950e-01 -1.029348e-01 3.879860e-06 -8.314368e-05 -3.370754e-05
4.400312e-02 -8.656918e-02 -1.119798e-01 -4.739494e-05 1.005382e-04 -3.859869e-05
-2.670034e-01 -1.981167e-01 -1.482949e-01 -8.907333e-07 -9.708053e-05 -6.610900e-05
-3.160990e-01 2.127358e-01 9.078783e-02 -1.282435e-05 9.300419e-05 2.528840e-05
-1.802764e-01 -2.065058e-01 9.380631e-02 8.656501e-06 -1.096844e-04 2.858128e-05
4.878094e-01 -7.074011e-02 1.266577e-04 9.141783e-05 -1.806420e-05 4.230513e-06
-1.480402e-01 2.312045e-01 -2.855896e-02 7.951170e-06 8.830737e-05 -4.407003e-06
-4.775928e-01 7.677888e-02 1.038135e-01 -1.550739e-04 3.107618e-05 6.754017e-05
1.170004e-01 9.786537e-02 1.699469e-01 -1.413354e-05 -1.739781e-05 1.565646e-04
7.264161e-02 -1.625862e-01 1.720178e-01 -9.064606e-06 -4.668561e-05 1.277169e-04
-7.757553e-02 -6.260035e-03 -1.107350e-01 1.383494e-04 1.369308e-05 -3.117372e-05
-4.517537e-01 9.755660e-03 -1.564709e-01 -4.290607e-05 -1.484068e-06 -6.609549e-05
-9.131546e-02 -1.997308e-01 -1.198820e-01 4.674208e-06 -1.399080e-04 -5.278570e-05
4.838525e-01 9.491596e-02 8.977400e-03 9.339931e-05 3.410307e-05 -4.663605e-06
2.943224e-01 -9.196223e-02 1.269067e-01 -2.200892e-05 8.644178e-05 5.955316e-05
4.609198e-01 -1.017379e-01 8.973278e-02 1.300358e-04 -4.112919e-05 5.121528e-05
3.408012e-01 -2.158630e-01 8.180068e-02 1.962424e-05 -1.341431e-04 3.267753e-05
8.178534e-03 8.615485e-02 8.963865e-02 -1.677330e-05 -1.060925e-04 2.600719e-05
-2.238242e-01 -2.123026e-01 1.004017e-01 3.973276e-06 -1.256878e-04 4.925595e-05
-3.049987e-01 -1.490767e-01 -1.611145e-01 -4.152137e-06 -1.435456e-05 -1.136555e-04
-3.551432e-01 -1.911194e-01 -1.269797e-01 -3.400587e-05 -1.089560e-04 -7.792596e-05
-1.785763e-01 -3.204142e-02 -2.728991e-02 -1.068788e-04 2.913352e-05 -6.945400e-06
-1.193885e-01 2.179378e-01 2.695613e-02 7.675443e-06 1.273288e-04 5.680820e-06
4.000224e-01 9.399632e-02 -1.537581e-01 2.001860e-05 7.685078e-06 -1.460340e-04
2.104419e-01 8.902631e-02 -1.300730e-01 6.650057e-05 -1.286863e-04 -9.549066e-05
1.737088e-02 2.079090e-01 -9.512216e-02 3.648026e-06 1.122004e-04 -3.279531e-05
-1.933448e-01 2.198906e-01 8.612008e-02 1.108442e-05 1.356873e-04 3.177833e-05
3.570789e-01 -3.723642e-02 1.279300e-01 -1.502763e-04 3.351898e-05 1.034598e-04
4.146781e-01 1.630116e-01 1.278148e-01 5.675947e-05 5.950713e-05 5.739775e-05
4.411986e-01 -1.103030e-02 -1.596488e-01 5.219674e-05 8.709751e-06 -1.205120e-04
-5.334694e-02 -7.631979e-02 1.207686e-01 8.723362e-05 1.160731e-04 5.665917e-05
2.440818e-01 -2.016819e-01 1.394776e-01 -1.199523e-06 -8.794393e-05 7.852150e-05
4.884052e-01 9.140864e-02 1.395801e-02 9.019169e-05 3.170616e-05 4.423513e-06
-2.106143e-01 7.181009e-02 -4.471834e-02 -7.021495e-05 -1.321021e-04 -1.917845e-05
-4.287908e-01 1.988622e-01 4.447384e-02 -5.066339e-05 9.123178e-05 1.489938e-05
4.247896e-01 -3.039111e-02 -1.544927e-01 1.952528e-05 -1.149671e-06 -1.323922e-04
-6.415639e-03 8.207620e-02 -6.913706e-02 1.366256e-05 -1.690601e-04 -3.387762e-05
2.322508e-01 8.880918e-02 -6.525752e-02 9.581448e-06 -1.055528e-04 -2.179728e-05
4.731953e-01 -1.427630e-01 2.995152e-03 8.248387e-05 -5.039405e-05 4.609743e-06
2.682707e-01 -2.290052e-01 -3.997658e-02 -4.514559e-06 -1.367080e-04 -1.723849e-05
1.521403e-01 2.312946e-01 5.227154e-03 -9.461276e-06 1.128721e-04 4.525311e-06
4.120256e-02 -6.847199e-02 -2.484913e-02 -6.552588e-05 1.228107e-04 -1.173601e-05
-3.610506e-01 2.252594e-01 5.284037e-02 -3.298393e-05 1.088856e-04 1.588498e-05
2.869508e-01 7.045045e-02 3.367712e-02 -5.755999e-05 -1.255186e-04 8.531966e-06
2.945664e-01 -8.400194e-02 -1.089365e-01 -4.561064e-05 9.973007e-05 -4.882385e-05
2.070817e-01 2.272144e-01 6.103734e-03 -6.832249e-06 8.153377e-05 3.266307e-06
-3.398067e-01 -5.673158e-02 1.083322e-01 1.180832e-04 5.082316e-05 5.668762e-05
-3.902229e-01 1.951092e-01 -1.003876e-01 -5.217665e-05 9.413246e-05 -4.626279e-05
-2.857107e-02 -6.632060e-02 4.727263e-02 2.785815e-05 8.905340e-05 -1.065044e-07
-2.823116e-01 -7.956635e-02 -9.852609e-02 3.159425e-05 1.091182e-04 -4.398314e-05
-3.887897e-01 1.537501e-01 1.470777e-01 -4.834205e-05 5.254815e-05 8.655228e-05
-1.132608e-01 2.188196e-01 -7.936989e-02 4.637458e-06 7.440028e-05 -1.690693e-05
-3.144949e-01 2.279899e-01 -3.336488e-02 -7.019605e-06 1.092162e-04 -1.219074e-05
-4.926666e-01 -5.032894e-02 3.830149e-02 -9.131606e-05 -1.795204e-05 1.319569e-05
-2.033655e-02 1.761234e-01 -1.577303e-01 1.141893e-06 4.291654e-05 -8.274550e-05
-3.484610e-01 -1.063486e-01 1.613571e-01 3.087827e-05 3.529641e-05 1.079043e-04
1.777326e-01 -2.056381e-01 -9.335630e-02 -1.105295e-05 -1.337573e-04 -3.163235e-05
3.972283e-01 1.872592e-01 1.040270e-01 7.655662e-05 1.131993e-04 5.945846e-05
2.168124e-01 1.368451e-01 1.572960e-01 2.041158e-05 -3.487624e-05 1.105403e-04
-2.452513e-02 2.166778e-01 7.173627e-02 -2.946667e-08 1.510858e-04 1.839092e-05
2.576600e-01 2.253727e-01 3.554683e-02 -3.393111e-06 1.040705e-04 1.302828e-05
-4.804433e-01 -5.286692e-02 -1.036837e-01 -1.316033e-04 -2.617445e-05 -5.714865e-05
-2.523081e-01 8.676372e-02 1.098402e-01 8.081166e-06 -1.282162e-04 4.934261e-05
7.212449e-02 -3.029407e-02 -7.857426e-02 -7.826631e-05 3.338289e-05 -1.381631e-05
3.843364e-01 2.115524e-01 -6.274206e-02 2.467732e-05 7.951467e-05 -1.153447e-05
-6.275932e-02 -6.981520e-02 1.208667e-01 5.487749e-05 7.190239e-05 3.660993e-05
1.164598e-01 1.178466e-01 -1.657610e-01 -2.346978e-05 -1.414418e-05 -1.239759e-04
4.791988e-01 6.288847e-02 -6.552438e-02 1.203078e-04 2.381165e-05 -3.199137e-05
2.350480e-01 -7.323027e-02 -6.502543e-02 2.141207e-05 8.861117e-05 -1.003103e-05
-1.632904e-01 2.244303e-01 -6.364827e-02 6.635780e-06 8.121556e-05 -1.845293e-05
-6.693572e-04 -2.255768e-01 3.326393e-02 2.934209e-07 -1.694060e-04 1.998889e-05
2.609252e-01 -2.298442e-01 7.050725e-02 -3.739015e-06 -1.285167e-04 2.950257e-05
3.579861e-01 -2.163705e-01 -6.781431e-02 3.365905e-05 -1.095181e-04 -2.897480e-05
-9.243575e-02 7.194081e-02 1.520324e-01 6.657377e-05 -2.292595e-05 8.953331e-05
-2.902698e-01 2.408172e-01 -2.843766e-02 -5.440927e-06 1.531300e-04 -6.335198e-06
-1.107724e-01 -1.443197e-01 -1.696850e-01 1.293602e-05 -2.622313e-05 -1.444279e-04
-3.001090e-01 2.213487e-01 8.346020e-02 -2.705289e-06 7.053330e-05 1.646829e-05
3.378869e-01 8.467943e-03 -7.846218e-02 -1.087653e-04 -1.604635e-05 -2.492750e-05
-4.094997e-01 -1.095429e-01 1.562436e-01 -4.711591e-05 -1.970435e-05 1.107192e-04
-3.705779e-01 1.831159e-01 -1.489670e-01 -2.824281e-05 8.354436e-05 -8.937120e-05
1.129266e-02 -2.169350e-01 -3.145999e-02 -2.112193e-06 -1.199683e-04 -1.230049e-05
4.601439e-02 -7.078316e-02 -6.224175e-02 -5.211319e-05 1.030570e-04 -1.084693e-05
-1.452451e-01 -2.138967e-01 -8.109373e-02 4.552449e-06 -7.730562e-05 -1.843156e-05
4.509376e-01 1.664443e-01 -1.219977e-02 1.020310e-04 6.231663e-05 -5.715978e-06
-2.225416e-01 -9.429968e-02 -1.271738e-01 -3.163300e-05 1.262281e-04 -7.037296e-05
1.276249e-01 -4.886513e-02 -1.668504e-01 2.945440e-05 2.051725e-05 -1.009907e-04
2.000259e-01 5.404410e-02 -4.354593e-02 8.163131e-05 -1.066251e-04 -1.466475e-05
3.190938e-01 -2.259559e-01 6.742145e-02 1.158419e-05 -7.562953e-05 1.769508e-05
-1.116604e-01 2.502957e-02 1.524471e-01 7.404173e-05 -9.735562e-06 1.196507e-04
-3.634886e-01 -9.214798e-02 -1.545995e-01 1.825050e-05 1.427227e-05 -1.423224e-04
2.835998e-01 2.357591e-01 -1.619170e-02 4.792197e-06 1.361262e-04 -5.724009e-06
-1.845232e-01 2.347238e-01 -1.994240e-02 9.516865e-06 1.138511e-04 -4.626405e-06
1.894379e-01 1.419772e-01 -1.663646e-01 1.101623e-05 -9.701565e-06 -1.053761e-04
4.835172e-01 7.270489e-02 6.116967e-02 8.460420e-05 1.675251e-05 1.233759e-05
3.498644e-01 3.069673e-03 -1.243974e-01 -1.297268e-04 5.621655e-08 -7.968620e-05
3.159966e-01 -2.833141e-02 3.916038e-02 -1.615645e-04 6.589344e-05 9.996246e-06
7.302283e-02 3.901467e-02 -7.200974e-03 -6.738156e-05 -1.757699e-05 1.983141e-06
3.784550e-01 8.506351e-02 1.526436e-01 -1.176202e-05 5.082674e-07 1.440312e-04
2.648413e-01 7.717877e-02 -3.754276e-02 -2.652561e-05 -1.265709e-04 -2.067382e-05
-3.982092e-01 1.991431e-01 -8.633279e-02 -5.286643e-05 1.083400e-04 -3.720871e-05
-4.333452e-01 -1.814241e-01 3.323750e-02 -6.734097e-05 -7.126371e-05 1.426733e-05
-2.248062e-01 -1.299894e-01 -1.515372e-01 -1.919677e-05 5.639376e-05 -1.002296e-04
-3.814030e-02 1.663105e-01 -1.649616e-01 4.341438e-06 2.132444e-05 -7.497973e-05
-2.272689e-01 6.934443e-02 -2.871387e-02 -4.418847e-05 -1.699261e-04 -1.805674e-05
-4.961793e-01 -3.548943e-03 7.960874e-02 -1.461455e-04 -5.964433e-06 3.694004e-05
3.406669e-01 9.043383e-02 -1.414410e-01 -4.195681e-05 -4.709856e-05 -7.645938e-05
-8.291128e-02 -9.116420e-02 -1.565959e-01 5.438890e-05 4.220555e-05 -1.007701e-04
3.980692e-01 -2.819409e-03 1.625700e-01 -2.579464e-05 2.005362e-06 1.489256e-04
-4.860775e-01 6.525431e-02 3.171611e-02 -9.626379e-05 1.862594e-05 1.357042e-05
3.001219e-01 1.262080e-01 -1.533412e-01 -1.171210e-05 -7.008636e-05 -1.250916e-04
-3.346926e-01 2.350922e-01 2.977754e-02 -1.227811e-05 8.381202e-05 3.795843e-06
-1.304848e-01 2.187656e-01 -2.823962e-02 6.236096e-06 9.753899e-05 -3.931889e-06
-2.339405e-01 -8.948409e-02 -1.003616e-01 -2.574174e-05 8.702796e-05 -2.188938e-05
2.033809e-01 1.205758e-01 1.547778e-01 1.413705e-05 -3.085735e-05 9.212357e-05
-4.839892e-01 -9.890618e-02 -3.956315e-03 -8.648438e-05 -3.033810e-05 -3.211427e-06
2.255339e-01 -1.126017e-01 -1.500925e-01 1.473312e-05 9.626976e-05 -1.226243e-04
4.464960e-01 1.093823e-01 -1.192831e-01 8.704300e-05 3.244033e-05 -6.721137e-05
-2.870147e-01 -9.567458e-02 1.317399e-01 2.211632e-05 8.648272e-05 6.064566e-05
-3.181341e-01 1.673205e-01 1.571573e-01 -1.380443e-05 4.302847e-05 1.045310e-04
3.053712e-02 -1.391142e-01 -1.543707e-01 -7.583424e-06 1.396133e-05 -9.416948e-05
3.188295e-01 1.514028e-02 2.171408e-02 -7.577835e-05 -1.910868e-05 3.565957e-06
7.580967e-02 1.814833e-01 1.506835e-01 -2.993408e-06 9.002298e-05 1.095644e-04
1.944642e-01 1.723646e-01 1.579580e-01 -3.910730e-07 4.986667e-05 1.089784e-04
-3.118736e-01 -5.748145e-02 -6.497639e-02 1.242495e-04 9.234020e-05 -2.340777e-05
3.885263e-01 2.044554e-01 -9.576154e-02 4.734656e-05 8.620115e-05 -2.619177e-05
1.335199e-01 2.021723e-02 -1.571776e-01 3.109241e-05 1.370520e-06 -1.002679e-04
4.188809e-01 1.650901e-01 -1.159149e-01 8.829442e-05 9.461661e-05 -5.812080e-05
-5.021070e-01 -4.812994e-03 8.906111e-03 -9.890935e-05 -5.409319e-06 3.378447e-06
5.618141e-02 8.120449e-02 1.347024e-01 -6.513042e-05 -7.386604e-05 6.150340e-05
4.692395e-02 2.243263e-01 -8.313659e-03 -2.285056e-06 1.336924e-04 -6.426556e-06
-4.965120e-01 -4.121318e-02 -2.048221e-02 -9.783268e-05 -6.145334e-06 -4.441738e-06
-1.870402e-01 -6.483881e-02 1.117243e-01 -7.041705e-05 9.111252e-05 4.958390e-05
-2.609550e-01 7.457599e-02 9.071459e-03 4.646434e-06 -9.770177e-05 4.398997e-06
2.859928e-01 2.111564e-01 -1.158485e-01 5.158142e-06 1.192479e-04 -4.560724e-05
2.380503e-01 2.148814e-01 9.386675e-02 -3.355895e-06 1.029275e-04 2.416177e-05
-6.342713e-02 3.641013e-02 4.311798e-02 8.743703e-05 -3.839820e-05 4.690283e-06
-3.220873e-01 -9.959067e-02 -1.447235e-01 4.293625e-05 4.826550e-05 -7.820004e-05
4.390425e-01 -1.173091e-01 1.469194e-01 4.640034e-05 -1.748196e-05 5.864509e-05
-4.864207e-01 5.022936e-02 1.008183e-01 -1.433835e-04 8.592509e-06 3.770405e-05
5.008184e-01 -5.535548e-03 3.619728e-02 1.298943e-04 -6.774385e-06 9.233093e-06
-1.749914e-01 -8.912693e-03 -9.121162e-03 -1.087880e-04 8.076201e-06 2.749343e-06
-4.365954e-01 -1.732115e-01 6.815842e-02 -7.995159e-05 -8.413573e-05 1.827519e-05
3.599158e-01 -5.230438e-02 1.317725e-01 -8.277016e-05 3.560135e-05 6.469954e-05
3.904280e-01 -1.583146e-01 1.372895e-01 4.000745e-05 -6.255083e-05 9.570883e-05
-2.956789e-01 7.861681e-02 1.123706e-01 4.261282e-05 -8.666176e-05 4.139695e-05
1.801076e-01 2.882078e-02 7.395601e-02 1.323836e-04 -5.476372e-05 2.581165e-05
-1.890669e-01 5.195392e-02 -6.235699e-02 -1.020845e-04 -7.553573e-05 -1.366942e-05
-6.113611e-02 2.047198e-01 -7.948290e-02 1.652388e-06 1.170795e-04 -2.580148e-05
-1.671918e-01 -2.179351e-01 -2.086413e-02 1.114877e-05 -1.508140e-04 -7.754737e-06
-4.495788e-01 -8.658563e-02 -1.407265e-01 -6.792660e-05 -3.148853e-05 -6.705368e-05
-1.737871e-01 -2.072173e-01 -1.126786e-01 7.202664e-06 -8.318334e-05 -3.309906e-05
3.400245e-01 1.011685e-03 -1.131138e-01 -1.127444e-04 -1.663551e-05 -5.253195e-05
4.073701e-01 1.103302e-01 1.674180e-01 4.929281e-05 2.804183e-05 1.021171e-04
-4.504567e-01 -3.358535e-02 -1.591080e-01 -6.681914e-05 -5.296352e-06 -7.871474e-05
-3.061585e-01 6.797267e-02 -1.115504e-01 6.081576e-05 -7.281047e-05 -4.269843e-05
-1.936615e-01 1.582980e-01 -1.622520e-01 5.065049e-06 2.002499e-05 -1.359157e-04
9.587916e-02 5.056431e-02 -1.493530e-01 -6.613084e-05 -4.205614e-05 -1.002273e-04
-5.564588e-02 -6.361787e-02 5.648127e-02 8.399477e-05 1.038211e-04 8.893557e-06
4.496219e-01 -1.330182e-01 1.007646e-01 9.760528e-05 -5.956748e-05 5.064066e-05
-2.774288e-01 2.209822e-01 9.235414e-02 -1.190259e-06 1.459375e-04 3.815884e-05
-4.105751e-01 -1.939204e-01 -6.158740e-02 -7.159107e-05 -8.887404e-05 -2.721596e-05
4.808175e-01 9.347504e-02 -5.375442e-02 8.951325e-05 3.183079e-05 -1.509777e-05
-3.304315e-01 -1.989168e-02 7.265118e-02 1.411682e-04 2.582120e-05 3.695852e-05
-6.186875e-02 -2.117054e-01 1.092327e-01 5.367670e-06 -1.251311e-04 4.379115e-05
4.024771e-01 1.521281e-01 -1.416208e-01 5.584584e-05 6.043132e-05 -9.907955e-05
-5.056408e-01 2.882287e-04 2.809776e-04 -9.916295e-05 -3.429598e-06 2.190424e-06
-1.752711e-01 -9.514440e-02 1.622269e-01 -3.843743e-05 4.287973e-05 1.119283e-04
-3.343057e-01 2.273673e-01 -7.086719e-02 -2.117602e-05 1.315938e-04 -2.747446e-05
4.165580e-02 -7.881017e-02 9.571745e-02 -3.929088e-05 8.175430e-05 2.994193e-05
3.853497e-01 -1.961141e-01 -1.035763e-01 7.225416e-05 -1.315243e-04 -6.518731e-05
4.658691e-02 1.846438e-01 -1.546589e-01 -1.470116e-06 6.521559e-05 -7.878366e-05
7.360447e-02 -1.947240e-02 7.876707e-03 -1.164150e-04 2.205536e-05 1.239499e-06
2.298151e-01 1.800394e-01 -1.606050e-01 7.397123e-07 3.672336e-05 -7.109501e-05
-4.113083e-01 -2.083631e-02 -1.550490e-01 -1.817258e-05 -1.221641e-06 -1.190354e-04
-7.287004e-02 -5.142733e-02 5.148662e-02 1.916825e-04 1.090288e-04 1.242884e-05
-2.156124e-01 2.122793e-01 1.168126e-01 4.866908e-06 1.265520e-04 5.041436e-05
-1.879271e-01 -1.638390e-01 1.643575e-01 -9.220947e-06 -2.611791e-05 1.206584e-04
-2.677173e-01 2.390059e-01 -7.402485e-03 3.818898e-06 1.105554e-04 -4.489988e-06
-3.446348e-01 3.692115e-02 -1.114125e-01 8.935485e-05 -2.108574e-05 -3.959323e-05
-3.873199e-01 1.464909e-01 1.449947e-01 -3.324830e-05 3.637597e-05 1.082092e-04
-3.215315e-01 -5.433122e-02 1.168152e-01 7.311779e-05 5.060481e-05 6.544146e-05
-4.706875e-02 -8.327754e-02 1.249797e-01 4.786700e-05 1.087756e-04 4.411657e-05
-1.912587e-01 2.010767e-01 1.315980e-01 3.567712e-07 9.908554e-05 4.833350e-05
3.568150e-01 2.063102e-01 -9.378353e-02 4.413799e-05 1.429292e-04 -6.168295e-05
-4.454954e-01 1.537753e-01 1.024522e-01 -9.879816e-05 6.071649e-05 5.149995e-05
-2.948178e-01 1.706190e-01 1.603377e-01 -3.130250e-06 4.031898e-05 1.127751e-04
-3.766890e-01 -2.147377e-01 -6.702149e-03 -3.598008e-05 -1.171550e-04 -5.417889e-06
4.933579e-01 2.848472e-02 4.109766e-02 1.016102e-04 6.381894e-06 1.440478e-05
-3.768606e-01 1.407106e-01 1.562525e-01 -1.825815e-05 3.130194e-05 7.781701e-05
-2.424802e-01 1.166621e-01 1.518859e-01 -5.462888e-06 -6.618229e-05 1.276978e-04
-1.320522e-03 2.176347e-01 -8.885755e-02 4.324666e-07 9.221259e-05 -2.125633e-05
-4.359185e-01 -1.768204e-01 -6.754160e-02 -6.536266e-05 -6.871852e-05 -2.532764e-05
2.145365e-01 -6.156985e-02 -1.271396e-02 5.744918e-05 1.158896e-04 1.206481e-06
3.407687e-02 -2.186643e-01 1.116449e-02 -1.777847e-06 -8.529088e-05 3.224758e-06
2.095270e-02 1.947708e-01 1.159400e-01 1.202210e-05 1.175126e-04 4.959933e-05
1.925232e-01 2.208839e-01 -4.572452e-02 -1.011673e-05 1.217222e-04 -1.563138e-05
-1.543566e-01 2.276162e-01 3.693636e-02 6.278869e-06 8.933140e-05 1.019890e-05
-6.147243e-02 2.021492e-01 -1.162503e-01 8.666544e-06 1.351267e-04 -5.329660e-05
-2.093150e-01 2.213790e-01 4.325883e-02 9.089937e-06 1.093870e-04 1.404752e-05
-4.927490e-01 9.202616e-02 -4.840119e-03 -9.254275e-05 1.828669e-05 -4.320228e-06
1.886528e-01 -2.004510e-01 1.302819e-01 -1.341060e-05 -8.997169e-05 5.263828e-05
1.999714e-01 7.255230e-02 -6.952037e-02 5.547871e-05 -7.562976e-05 -1.435183e-05
-2.761928e-01 2.341075e-01 -6.851755e-02 -6.922589e-06 1.595124e-04 -3.320489e-05
-2.574340e-01 2.184811e-01 -1.209173e-01 3.254380e-06 1.179636e-04 -4.527972e-05
-2.364783e-01 1.637482e-01 -1.578736e-01 -3.495819e-06 1.595768e-05 -1.194456e-04
-3.423631e-01 2.148801e-01 1.040358e-01 -3.355366e-05 1.148149e-04 4.891017e-05
1.816218e-01 -2.362781e-02 -1.443018e-02 9.533939e-05 1.905452e-05 -2.045151e-06
2.716091e-02 1.990339e-01 1.247233e-01 -2.427674e-06 1.076210e-04 6.658257e-05
-3.829445e-01 -2.178918e-01 4.695120e-02 -3.143085e-05 -1.023739e-04 1.482831e-05
3.984048e-01 1.378574e-01 1.545426e-01 4.052577e-05 4.346218e-05 1.237283e-04
4.756405e-01 -1.045282e-01 -7.779063e-02 1.335436e-04 -4.889241e-05 -3.780915e-05
-3.198785e-02 6.569007e-02 6.296553e-03 2.908149e-05 -8.693645e-05 5.465915e-06
-4.628272e-01 9.519395e-02 -1.203775e-01 -1.242657e-04 4.369726e-05 -9.674428e-05
7.442639e-02 2.152444e-01 3.704669e-02 -6.261282e-06 1.823975e-04 2.429909e-05
-2.266748e-01 2.334171e-01 3.203386e-02 3.937329e-06 1.147749e-04 1.466816e-05
3.021760e-01 -2.102129e-01 1.140998e-01 2.435070e-05 -1.145736e-04 5.609191e-05
4.089814e-01 3.813150e-02 1.574825e-01 -6.888137e-06 -6.090260e-06 1.204218e-04
-3.108479e-01 -4.645015e-02 -3.290145e-02 7.385802e-05 6.026302e-05 -1.326826e-05
-9.557989e-02 5.460101e-02 1.486467e-01 1.116823e-04 -4.148483e-05 1.056310e-04
1.620880e-01 -2.266100e-01 -5.522617e-02 -9.574572e-06 -1.146117e-04 -1.483178e-05
4.633045e-01 -1.488494e-01 -3.521411e-02 6.993143e-05 -4.272238e-05 -1.197240e-05
-4.764799e-01 9.329893e-02 -8.349920e-02 -9.780560e-05 3.584176e-05 -2.782519e-05
-3.197164e-01 2.121467e-01 -9.621331e-02 -1.409471e-05 1.453000e-04 -4.413254e-05
1.994115e-01 1.739082e-01 -1.559806e-01 4.372952e-07 3.895561e-05 -8.151421e-05
2.381192e-01 -2.246218e-01 7.956979e-02 -3.569184e-06 -1.065955e-04 1.346730e-05
-5.924734e-02 7.809484e-02 1.253692e-01 5.526508e-05 -7.360297e-05 3.549146e-05
4.055852e-02 8.576082e-02 -1.329433e-01 -4.051301e-05 -9.102598e-05 -3.918991e-05
2.861423e-02 -7.496462e-02 3.197190e-02 -1.874733e-05 7.064326e-05 2.913016e-06
4.959559e-01 1.610382e-02 5.701993e-02 1.033359e-04 5.422342e-06 1.865020e-05
