7.517935e-02 -4.870928e-01 -1.071943e-02 4.520161e-04 -2.077906e-03 -1.589476e-04
2.423377e-02 -1.767591e-01 1.604846e-01 -8.952189e-05 4.115414e-04 6.161844e-04
-3.476703e-01 2.182679e-01 -1.726198e-01 -8.955219e-04 4.889985e-04 -1.492746e-03
4.326254e-02 8.296497e-02 8.793193e-03 -2.083763e-04 -3.816233e-04 3.250186e-05
-1.247186e-01 -3.592268e-01 -1.833001e-01 -2.412615e-04 -6.468463e-04 -1.429869e-03
-3.259048e-02 2.621147e-01 -1.976475e-01 1.158523e-05 -1.619883e-04 -1.074753e-03
4.100190e-01 1.135209e-01 1.607080e-01 9.970076e-04 2.168883e-04 1.492751e-03
3.293719e-02 -2.928152e-01 -1.990559e-01 000000 000000 -1.212654e-03
-2.670064e-01 2.866583e-02 1.895303e-01 1.620064e-04 -1.158876e-05 1.074773e-03
-4.604085e-02 -4.077584e-01 -1.767474e-01 -7.279284e-05 -1.017736e-03 -1.492766e-03
4.440853e-01 1.015322e-01 1.297065e-01 1.515904e-03 3.297578e-04 1.234022e-03
-1.658583e-01 -1.701851e-01 1.835832e-01 2.271083e-04 2.271083e-04 1.038620e-03
-4.016313e-01 -2.057967e-01 -1.224487e-01 -1.361589e-03 -7.434857e-04 -1.234040e-03
2.146838e-01 -8.758617e-02 -1.914437e-01 -2.672841e-04 9.969081e-05 -9.225036e-04
1.815951e-01 4.712013e-01 -1.963147e-02 7.398172e-04 1.983532e-03 -1.582574e-04
-1.822668e-01 -1.310476e-01 -1.880426e-01 3.361622e-04 2.516650e-04 -8.697811e-04
-8.029057e-02 -1.891985e-01 1.759259e-01 1.293368e-04 3.467724e-04 7.665575e-04
3.387610e-01 -1.756048e-01 1.822267e-01 6.496738e-04 -3.547425e-04 1.533106e-03
4.587994e-01 -1.091266e-01 9.165751e-02 1.679134e-03 -3.652656e-04 9.895994e-04
-3.898690e-01 -2.115752e-01 1.373054e-01 -1.137118e-03 -6.209088e-04 1.392757e-03
-4.285196e-01 1.374440e-02 -1.582390e-01 -1.228886e-03 8.789524e-05 -1.324413e-03
-4.982823e-01 9.860600e-03 -5.124220e-02 -2.064440e-03 -1.476505e-04 -4.711889e-04
2.809052e-01 -4.136962e-01 6.630558e-03 1.274373e-03 -1.702363e-03 1.589764e-04
3.701118e-01 1.599777e-01 1.708727e-01 6.935448e-04 2.586737e-04 1.533115e-03
-3.217042e-01 -1.345133e-01 1.946461e-01 -4.057588e-04 -1.513424e-04 1.400438e-03
4.463270e-01 -5.489667e-02 -1.335697e-01 1.485417e-03 -1.062423e-04 -1.184590e-03
-3.863711e-02 -4.808763e-01 8.248383e-02 -1.360135e-04 -1.901601e-03 7.463064e-04
-1.253061e-01 -4.490731e-01 -1.188449e-01 -3.297578e-04 -1.515904e-03 -1.234015e-03
2.117198e-01 3.467854e-01 1.705107e-01 3.308647e-04 6.059325e-04 1.429905e-03
4.509229e-01 -1.488982e-01 -9.317195e-02 1.786216e-03 -6.662259e-04 -7.463122e-04
-7.030936e-02 -1.341250e-01 1.238507e-01 2.451215e-04 4.489006e-04 4.068404e-04
2.234798e-01 -3.568061e-02 1.894076e-01 -4.103449e-04 8.926603e-05 8.697706e-04
-3.181208e-02 4.937787e-01 -4.854435e-02 -1.476505e-04 2.064440e-03 -4.711889e-04
9.953612e-02 4.631594e-01 8.829327e-02 4.052440e-04 1.862895e-03 7.463192e-04
1.811017e-01 4.480147e-01 -6.479521e-02 6.813769e-04 1.826841e-03 -7.632894e-04
2.005815e-01 -2.607677e-01 -1.954012e-01 1.312434e-04 -1.753217e-04 -1.449194e-03
-3.148268e-01 3.575011e-01 9.710489e-02 -1.062881e-03 1.419837e-03 1.021390e-03
3.817037e-01 -3.189430e-01 -1.495951e-02 1.702363e-03 -1.274373e-03 -1.589479e-04
-3.834611e-01 -2.689819e-01 -1.071147e-01 -1.375675e-03 -1.029818e-03 -9.896002e-04
-1.892229e-01 -7.016479e-02 -1.706966e-01 4.502026e-04 1.679135e-04 -7.029734e-04
-1.334018e-01 -3.273802e-01 1.978258e-01 -1.513424e-04 -4.057588e-04 1.400449e-03
4.404416e-01 -1.505384e-01 -1.290691e-01 1.395312e-03 -5.204260e-04 -1.184578e-03
-4.072048e-01 -1.354796e-02 1.637950e-01 -9.585485e-04 -6.855795e-05 1.405958e-03
-3.790023e-01 -2.152108e-01 1.389192e-01 -1.137118e-03 -6.209088e-04 1.392757e-03
-1.684100e-01 -1.465061e-02 1.561583e-01 4.200869e-04 3.004830e-05 6.161657e-04
-3.322065e-01 -3.176246e-01 -1.188251e-01 -1.096965e-03 -1.096976e-03 -1.234030e-03
1.934486e-01 1.207384e-01 1.830127e-01 -3.685750e-04 -2.012620e-04 8.697836e-04
3.713937e-01 8.738386e-02 -1.879112e-01 6.746021e-04 1.467491e-04 -1.429904e-03
1.874009e-01 -2.396939e-01 -1.979672e-01 000000 000000 -1.339794e-03
6.231840e-02 -4.760885e-01 -7.916333e-02 1.360110e-04 -1.901553e-03 -7.463376e-04
-1.354775e-01 -4.887419e-01 -3.090043e-02 -4.399498e-04 -2.022417e-03 -4.711857e-04
-2.081035e-01 2.551133e-01 -1.926254e-01 -1.312434e-04 1.753217e-04 -1.449194e-03
-1.353759e-01 -4.270205e-01 -1.543434e-01 -4.305403e-04 -1.154339e-03 -1.324411e-03
-1.814648e-01 -1.970257e-01 2.020799e-01 1.281357e-04 1.281357e-04 1.199107e-03
-3.217130e-01 -2.169896e-01 1.721285e-01 -5.526571e-04 -4.137028e-04 1.429893e-03
-1.200505e-01 4.802611e-01 -4.052520e-02 -4.340775e-04 1.995387e-03 -4.648888e-04
4.240239e-01 1.587958e-01 1.260707e-01 1.453540e-03 5.421489e-04 1.234011e-03
2.431528e-01 1.595822e-01 1.942624e-01 000000 000000 1.339797e-03
-3.180576e-01 -2.599009e-01 -1.486875e-01 -7.693174e-04 -5.759020e-04 -1.405947e-03
-1.727619e-01 3.600145e-01 1.752537e-01 -3.565637e-04 9.560058e-04 1.492768e-03
3.974089e-01 3.704851e-03 1.706647e-01 1.017736e-03 -7.279284e-05 1.492772e-03
-3.821384e-01 3.050385e-01 -8.157965e-02 -1.560871e-03 1.168462e-03 -7.632894e-04
-1.710973e-01 1.712379e-01 -1.895972e-01 2.271039e-04 -2.271083e-04 -1.038623e-03
1.168595e-01 4.896933e-02 -1.255317e-01 -4.209962e-04 -1.570264e-04 -3.574132e-04
3.839516e-01 -5.514664e-02 1.796517e-01 7.232980e-04 -1.573456e-04 1.533109e-03
3.862726e-02 1.469611e-01 -1.208464e-01 -1.087196e-04 -4.997898e-04 -4.068539e-04
-2.353073e-01 -2.911850e-01 -1.694348e-01 -4.435935e-04 -5.925734e-04 -1.533128e-03
-3.420854e-01 1.422631e-01 1.847410e-01 -4.394306e-04 1.638841e-04 1.516551e-03
3.996446e-01 -6.589667e-03 -1.672170e-01 1.017736e-03 7.279284e-05 -1.492772e-03
-3.904240e-01 -1.737796e-01 1.574526e-01 -9.560058e-04 -3.565721e-04 1.492773e-03
-4.158241e-01 1.678587e-02 -1.662257e-01 -1.017736e-03 7.279284e-05 -1.492766e-03
-2.744691e-01 6.639206e-02 -1.976227e-01 2.127000e-09 1.479400e-08 -1.212647e-03
1.641665e-01 -9.310755e-02 1.702995e-01 -3.696472e-04 2.018431e-04 6.161635e-04
1.804197e-01 1.675661e-01 1.887177e-01 -2.017164e-04 -2.017164e-04 9.225082e-04
-1.052444e-02 2.395170e-01 -1.915249e-01 2.033927e-05 -2.845577e-04 -9.224981e-04
-1.171662e-01 -1.642987e-01 -1.823222e-01 2.217935e-04 2.962867e-04 -7.665569e-04
2.587329e-01 -3.261308e-01 -1.655557e-01 6.114649e-04 -8.168188e-04 -1.492772e-03
4.369474e-01 2.199981e-01 6.508413e-02 1.711299e-03 9.344388e-04 7.632964e-04
-1.643013e-02 1.127258e-01 -7.410308e-02 1.011233e-04 -4.647825e-04 -1.862121e-04
2.166381e-01 2.049083e-01 1.957429e-01 000000 000000 1.212666e-03
-4.709991e-01 1.679233e-01 2.493788e-02 -1.983532e-03 7.398172e-04 1.582464e-04
-5.393434e-02 2.323841e-01 -1.883636e-01 6.827644e-05 -3.138522e-04 -1.038620e-03
3.481975e-02 4.472711e-01 1.295679e-01 1.062423e-04 1.485417e-03 1.184570e-03
-1.634133e-01 -5.776582e-02 1.505366e-01 4.764804e-04 1.777118e-04 5.466785e-04
-2.852309e-01 3.935379e-01 -6.421738e-02 -1.168462e-03 1.560871e-03 -7.632685e-04
3.059528e-01 3.903033e-01 -1.045084e-02 1.274373e-03 1.702363e-03 -1.589764e-04
4.373523e-01 -1.373547e-02 1.463477e-01 1.292292e-03 -9.242927e-05 1.392748e-03
-8.314377e-02 -3.743272e-01 1.846698e-01 -1.467491e-04 -6.746021e-04 1.429878e-03
3.828374e-01 3.226137e-01 3.380571e-02 1.656897e-03 1.240334e-03 4.712058e-04
3.585158e-01 1.012513e-01 1.846823e-01 6.746021e-04 1.467491e-04 1.429892e-03
1.429792e-01 4.498434e-01 9.931392e-02 6.198124e-04 1.661764e-03 1.021384e-03
3.663910e-01 -2.528063e-01 -1.318161e-01 1.192164e-03 -8.924493e-04 -1.184582e-03
3.873701e-01 9.471062e-02 1.818951e-01 7.232980e-04 1.573456e-04 1.533095e-03
1.206511e-01 7.570852e-02 -1.089620e-01 -3.883697e-04 -2.120663e-04 -2.548294e-04
-1.025788e-01 2.264260e-01 1.982665e-01 1.367169e-04 -2.503724e-04 9.224883e-04
1.034810e-01 -2.312336e-01 1.940577e-01 -1.122414e-04 3.009226e-04 1.038593e-03
4.461323e-01 -4.565572e-02 1.239687e-01 1.485417e-03 -1.062423e-04 1.184570e-03
-3.251373e-01 3.532624e-01 6.584653e-02 -1.348072e-03 1.348058e-03 7.462900e-04
-3.461191e-01 6.749458e-02 -1.966666e-01 -4.231683e-04 9.205210e-05 -1.400447e-03
-9.396374e-02 -4.819971e-01 6.446119e-02 -4.144544e-04 -1.905246e-03 7.632725e-04
3.705477e-01 2.317662e-01 1.348315e-01 1.137118e-03 6.209088e-04 1.392757e-03
1.669227e-01 3.603601e-01 -1.731109e-01 3.547490e-04 6.496738e-04 -1.533127e-03
-2.794712e-01 -3.744395e-01 -9.138944e-02 -1.062902e-03 -1.419865e-03 -1.021390e-03
-2.188881e-01 1.824568e-02 1.834930e-01 4.188791e-04 -2.996070e-05 8.697959e-04
3.245434e-01 6.286513e-02 -2.087440e-01 2.139977e-04 4.655106e-05 -1.449163e-03
-3.825747e-01 1.153192e-01 -1.630576e-01 -9.004051e-04 3.358355e-04 -1.405960e-03
-1.465663e-01 3.285920e-01 1.965663e-01 -1.638885e-04 4.394017e-04 1.516563e-03
-9.074930e-02 -4.109612e-01 1.459835e-01 -2.618863e-04 -1.203868e-03 1.324419e-03
-2.267923e-01 3.527402e-01 -1.603735e-01 -4.605582e-04 8.434489e-04 -1.405941e-03
8.404310e-02 -4.839444e-01 8.012137e-02 4.052440e-04 -1.862881e-03 7.463414e-04
1.226723e-02 -3.140195e-01 -2.005619e-01 1.428211e-05 -1.997022e-04 -1.324827e-03
-4.101733e-01 2.827742e-01 4.339829e-02 -1.656882e-03 1.240334e-03 4.712000e-04
-2.212549e-01 -3.796431e-01 1.487835e-01 -5.904514e-04 -1.081317e-03 1.324418e-03
4.268265e-02 -4.437392e-01 1.481316e-01 9.242927e-05 -1.292282e-03 1.392740e-03
3.726728e-01 1.071350e-01 -1.757552e-01 6.746021e-04 1.467491e-04 -1.429904e-03
-3.196429e-01 -3.814514e-01 6.621592e-03 -1.268680e-03 -1.694747e-03 1.582371e-04
4.392198e-03 4.698213e-01 1.038150e-01 1.265357e-04 1.769079e-03 1.021387e-03
-6.832008e-02 2.993681e-01 -1.921339e-01 1.479400e-08 2.127000e-09 -1.339814e-03
2.235104e-01 3.268197e-01 1.678236e-01 4.435935e-04 5.925734e-04 1.533121e-03
4.769044e-01 -1.572258e-01 -2.699888e-02 1.983532e-03 -7.398172e-04 -1.582574e-04
2.242515e-01 1.943038e-01 -1.993251e-01 000000 000000 -1.212643e-03
-1.883774e-01 -4.576718e-01 2.097389e-02 -7.398172e-04 -1.983532e-03 1.582464e-04
-3.791187e-01 2.708004e-01 -1.170252e-01 -1.241920e-03 9.297019e-04 -1.234011e-03
-3.484854e-01 -1.408840e-01 -1.886452e-01 -4.393976e-04 -1.639022e-04 -1.516551e-03
3.257891e-01 3.765436e-01 1.114327e-02 1.268680e-03 1.694747e-03 1.582656e-04
-8.072933e-02 7.321042e-02 4.809914e-02 3.402970e-04 -2.547492e-04 9.677825e-05
-6.916917e-02 2.243683e-01 1.871141e-01 6.826816e-05 -3.138344e-04 1.038607e-03
1.780393e-01 4.596369e-01 3.333966e-02 7.232877e-04 1.939215e-03 4.711850e-04
-7.322017e-02 -4.544444e-01 -1.219163e-01 -1.106827e-04 -1.547396e-03 -1.233997e-03
-1.617128e-01 1.140354e-01 -1.675113e-01 2.962867e-04 -2.217935e-04 -7.665569e-04
-2.513679e-01 -9.509987e-02 1.986391e-01 1.697706e-04 6.330770e-05 1.199090e-03
-2.338517e-02 -3.550609e-01 1.947822e-01 -3.345347e-05 -4.677759e-04 1.516548e-03
1.851116e-01 -4.777944e-02 -1.609402e-01 -4.695163e-04 1.021423e-04 -7.029765e-04
-7.706349e-02 5.001363e-01 -1.431873e-02 -4.520161e-04 2.077906e-03 -1.589476e-04
3.724304e-01 3.379812e-01 -7.534195e-04 1.496953e-03 1.496953e-03 1.582652e-04
-4.612084e-01 1.197103e-02 1.277812e-01 -1.485417e-03 1.062423e-04 1.184570e-03
1.529849e-01 -4.629087e-01 -5.304534e-03 7.431408e-04 -1.992445e-03 -1.589560e-04
-4.029617e-01 -2.851895e-01 -3.096175e-02 -1.656897e-03 -1.240334e-03 -4.711815e-04
-2.492132e-01 -2.915389e-01 -1.797520e-01 -4.881713e-04 -4.881649e-04 -1.429895e-03
-9.049270e-02 -3.964024e-01 1.694318e-01 -2.042763e-04 -9.390326e-04 1.405956e-03
3.681235e-01 -5.661544e-02 -1.839358e-01 7.383302e-04 -5.280735e-05 -1.533111e-03
-2.526730e-01 -4.332261e-01 -8.363834e-03 -1.019138e-03 -1.866400e-03 -1.589336e-04
-7.333571e-02 4.914950e-01 -1.460604e-02 -4.520161e-04 2.077906e-03 -1.589476e-04
6.584749e-02 -3.250406e-01 2.033771e-01 4.255894e-05 -1.956365e-04 1.324826e-03
1.637713e-01 6.919596e-02 1.626400e-01 -3.946018e-04 -1.471769e-04 6.161555e-04
3.548128e-01 7.224999e-02 1.834971e-01 4.231683e-04 9.205210e-05 1.400447e-03
2.081041e-01 -3.553136e-01 1.652293e-01 4.889985e-04 -8.955219e-04 1.492746e-03
-3.747766e-01 3.251391e-01 -1.791240e-02 -1.702363e-03 1.274373e-03 -1.589479e-04
-2.201787e-01 -1.061945e-01 -1.896821e-01 2.819035e-04 1.539326e-04 -1.038618e-03
1.450329e-01 1.420089e-01 1.724762e-01 -2.617087e-04 -2.617087e-04 7.665622e-04
-5.188200e-02 8.662186e-02 -3.944152e-03 2.083763e-04 -3.816233e-04 3.250042e-05
5.317360e-02 -2.847967e-01 1.927255e-01 -3.851780e-05 1.770683e-04 1.199100e-03
-8.416135e-02 -3.087296e-01 1.912747e-01 -4.255894e-05 -1.956365e-04 1.324847e-03
1.439555e-01 3.679706e-01 -1.740310e-01 2.586802e-04 6.935448e-04 -1.533121e-03
2.290599e-01 2.870521e-01 1.816847e-01 4.137300e-04 5.526712e-04 1.429917e-03
-3.966742e-01 2.396736e-01 1.126646e-01 -1.508203e-03 8.235302e-04 9.895765e-04
-1.089234e-01 -4.294129e-01 -1.386482e-01 -2.753969e-04 -1.265982e-03 -1.392752e-03
1.149436e-01 2.902375e-01 1.952309e-01 6.996694e-05 1.875899e-04 1.324839e-03
-9.854533e-02 -7.807125e-02 1.111873e-01 3.984475e-04 2.982758e-04 2.866263e-04
2.332264e-01 -3.945634e-01 1.266280e-01 7.434857e-04 -1.361600e-03 1.234046e-03
-7.155859e-02 -1.387204e-01 -1.397336e-01 1.555093e-04 4.169178e-04 -4.783359e-04
-3.371193e-02 2.365424e-01 1.956731e-01 6.065584e-05 -2.787648e-04 9.224961e-04
-1.836808e-01 4.526331e-01 6.862286e-02 -6.813892e-04 1.826874e-03 7.633017e-04
2.549318e-01 -3.463556e-01 1.552765e-01 7.383159e-04 -9.862850e-04 1.324397e-03
4.948869e-01 -3.360179e-02 -2.538778e-02 2.064440e-03 -1.476505e-04 -4.711673e-04
-1.746590e-01 4.624911e-01 2.654574e-02 -7.398172e-04 1.983532e-03 1.582450e-04
3.062439e-01 1.948654e-01 1.918447e-01 4.116089e-04 2.247559e-04 1.516561e-03
-2.238724e-01 3.991451e-01 -1.171408e-01 -7.434857e-04 1.361589e-03 -1.234040e-03
-1.816792e-01 -5.946961e-02 -1.754826e-01 4.502026e-04 1.679135e-04 -7.029734e-04
-2.484134e-02 -1.604775e-01 -1.445376e-01 9.458446e-05 4.348100e-04 -4.783481e-04
-3.354254e-01 -3.478348e-01 -5.885936e-02 -1.378698e-03 -1.378684e-03 -7.632586e-04
1.751743e-01 6.458250e-03 1.590597e-01 -4.200869e-04 -3.004830e-05 6.161657e-04
-1.330196e-01 -1.368427e-01 1.634399e-01 2.978057e-04 2.978057e-04 6.161626e-04
2.134366e-01 -7.202667e-02 1.804273e-01 -3.934709e-04 1.467555e-04 8.697910e-04
4.356219e-01 2.452930e-01 -5.022690e-02 1.792264e-03 9.786489e-04 -4.648823e-04
3.388368e-02 4.637565e-01 1.180884e-01 1.226008e-04 1.714017e-03 9.896064e-04
3.273806e-01 3.121917e-01 1.284044e-01 1.053028e-03 1.053028e-03 1.184597e-03
2.763146e-01 -4.133188e-01 -7.509129e-02 1.168462e-03 -1.560871e-03 -7.632685e-04
3.721691e-01 3.037315e-01 6.125380e-02 1.560899e-03 1.168483e-03 7.632894e-04
4.405511e-01 -1.412344e-01 1.241017e-01 1.453540e-03 -5.421489e-04 1.234012e-03
5.208266e-02 8.337010e-02 -1.938037e-02 -2.083763e-04 -3.816233e-04 -3.250042e-05
3.994197e-01 -1.930155e-01 -1.348552e-01 1.307042e-03 -7.137000e-04 -1.184559e-03
-2.312683e-01 2.618537e-01 -1.920829e-01 -3.062221e-04 3.062221e-04 -1.400426e-03
1.146041e-01 -5.296795e-02 -1.051109e-01 -4.663284e-04 1.739348e-04 -2.866242e-04
1.246738e-01 4.056772e-01 -1.502800e-01 4.305504e-04 1.154339e-03 -1.324375e-03
-3.254915e-02 -2.509476e-01 1.908031e-01 2.291611e-05 3.203586e-04 1.038616e-03
-2.264444e-02 -2.788935e-01 -2.032654e-01 1.158653e-05 1.620064e-04 -1.074758e-03
4.360184e-01 9.269217e-02 1.317313e-01 1.455164e-03 3.165534e-04 1.184555e-03
5.068775e-03 -4.997372e-01 3.990950e-03 1.517104e-04 -2.121098e-03 1.589477e-04
-2.613785e-01 -3.775867e-01 1.202393e-01 -9.296902e-04 -1.241920e-03 1.233992e-03
2.999700e-01 6.975108e-02 -1.971401e-01 000000 000000 -1.339814e-03
2.412045e-01 4.276365e-01 5.492904e-02 9.786489e-04 1.792264e-03 4.648991e-04
-4.363950e-01 1.384682e-01 -1.421307e-01 -1.395312e-03 5.204260e-04 -1.184589e-03
1.456988e-01 -1.204757e-02 1.096867e-01 -4.481761e-04 3.206433e-05 3.574165e-04
-2.913806e-01 3.394491e-01 1.360164e-01 -9.296902e-04 1.241920e-03 1.234032e-03
4.234230e-01 1.813416e-01 -1.121512e-01 1.395312e-03 5.204260e-04 -1.184606e-03
2.138787e-01 -2.836739e-01 1.934695e-01 2.595265e-04 -3.466888e-04 1.400446e-03
3.902588e-02 -4.742626e-01 1.054412e-01 1.226008e-04 -1.714017e-03 9.895971e-04
-3.858158e-01 2.895569e-01 -8.230587e-02 -1.526159e-03 1.142473e-03 -7.463208e-04
1.372745e-01 1.625764e-01 1.643806e-01 -2.217935e-04 -2.962867e-04 7.665483e-04
1.604579e-01 -2.724880e-01 1.959522e-01 1.049560e-04 -1.922147e-04 1.449189e-03
-1.353259e-01 5.575813e-02 -1.125596e-01 4.209962e-04 -1.570264e-04 -3.574168e-04
6.072341e-02 -4.158181e-01 -1.451968e-01 2.753969e-04 -1.265982e-03 -1.392748e-03
2.828471e-01 6.965883e-02 1.912046e-01 000000 000000 1.212647e-03
4.894049e-01 3.854420e-03 5.815137e-02 2.064440e-03 -1.476505e-04 4.711889e-04
-4.100237e-01 -2.548217e-01 -9.719440e-02 -1.508232e-03 -8.235590e-04 -9.896096e-04
-2.748005e-01 3.345746e-01 -1.544349e-01 -7.383159e-04 9.862850e-04 -1.324382e-03
-2.683719e-01 4.013725e-01 -7.205971e-02 -1.168462e-03 1.560871e-03 -7.632685e-04
4.246919e-02 1.278648e-01 1.208732e-01 -1.570264e-04 -4.209962e-04 3.574132e-04
-1.694542e-01 3.087642e-01 -1.901496e-01 -2.075445e-04 3.800938e-04 -1.400440e-03
-3.655726e-02 1.637888e-01 1.483213e-01 9.458446e-05 -4.348100e-04 4.783374e-04
1.934165e-01 -4.311736e-01 -1.046449e-01 8.500161e-04 -1.556693e-03 -1.021411e-03
-4.424427e-02 -8.850720e-02 8.693793e-03 2.038156e-04 3.732769e-04 3.178948e-05
-1.313602e-01 -4.792920e-01 3.371408e-02 -4.399498e-04 -2.022417e-03 4.712020e-04
-3.885880e-01 -2.271542e-01 -1.257185e-01 -1.307054e-03 -7.137000e-04 -1.184593e-03
-2.461505e-02 3.852240e-01 -1.769172e-01 -4.925852e-05 6.885877e-04 -1.429881e-03
-3.259814e-03 3.741093e-01 -1.773584e-01 -5.280735e-05 7.383302e-04 -1.533131e-03
9.656110e-02 -3.693669e-02 3.535926e-02 -3.982905e-04 1.485539e-04 9.677658e-05
-5.347149e-03 1.482523e-01 1.400025e-01 -3.628245e-05 -5.072427e-04 5.466731e-04
8.348896e-02 8.958268e-02 -7.655904e-02 -3.056686e-04 -3.056686e-04 -1.692239e-04
-2.895351e-01 -2.759220e-01 1.672857e-01 -6.795261e-04 -6.795261e-04 1.405945e-03
4.552242e-01 -1.798542e-01 -3.275483e-02 1.939215e-03 -7.232877e-04 -4.711903e-04
3.150502e-01 -9.605971e-02 -1.957956e-01 2.139977e-04 -4.655106e-05 -1.449185e-03
-1.338239e-01 3.986834e-02 -1.181103e-01 4.863355e-04 -1.057893e-04 -2.866234e-04
4.394725e-02 9.108310e-02 -3.559804e-02 -2.037206e-04 -3.730969e-04 -9.677628e-05
9.635381e-02 8.245314e-02 -9.596388e-02 -3.542507e-04 -2.651864e-04 -2.548364e-04
-2.007004e-01 -4.250702e-01 1.110522e-01 -8.499996e-04 -1.556663e-03 1.021394e-03
2.102126e-01 -2.700681e-01 -1.894510e-01 2.595265e-04 -3.466888e-04 -1.400421e-03
-4.976431e-01 -5.551361e-02 -2.012960e-03 -2.111619e-03 -1.510248e-04 -1.582373e-04
-4.396608e-01 -2.222013e-01 6.875418e-02 -1.673231e-03 -9.136364e-04 7.463313e-04
1.586453e-01 4.698499e-01 -3.061138e-02 7.232877e-04 1.939215e-03 -4.711903e-04
-2.429956e-01 -1.044093e-01 2.066349e-01 1.697706e-04 6.330770e-05 1.199090e-03
3.772508e-02 -2.151115e-01 -1.839112e-01 -8.926603e-05 4.103513e-04 -8.697805e-04
2.278168e-01 -4.403465e-01 -2.232864e-02 1.014577e-03 -1.858053e-03 -1.582710e-04
1.505589e-01 -4.271809e-01 1.187501e-01 5.421372e-04 -1.453528e-03 1.234018e-03
2.421413e-01 4.098828e-01 8.650670e-02 9.136667e-04 1.673261e-03 7.463298e-04
1.441397e-02 3.811987e-01 1.859771e-01 5.280736e-05 7.383302e-04 1.533131e-03
3.544914e-01 1.800858e-01 -1.793587e-01 6.496738e-04 3.547490e-04 -1.533126e-03
-1.643859e-01 2.459256e-02 1.412591e-01 4.969242e-04 -1.080951e-04 5.466695e-04
-1.413362e-01 4.282235e-01 1.262927e-01 -5.204260e-04 1.395312e-03 1.184589e-03
1.750276e-02 1.843124e-01 1.617402e-01 -3.004830e-05 -4.200869e-04 6.161763e-04
-2.969439e-01 2.604405e-01 -1.736120e-01 -5.925734e-04 4.435935e-04 -1.533128e-03
4.546806e-01 2.039877e-01 1.792359e-02 1.992430e-03 7.431408e-04 1.589564e-04
-2.708154e-01 1.317551e-01 1.953368e-01 000000 000000 1.339814e-03
4.424716e-01 -1.285842e-01 -1.073436e-01 1.733116e-03 -3.770126e-04 -1.021395e-03
-3.001906e-01 1.625418e-02 -1.962672e-01 000000 000000 -1.212644e-03
1.226107e-01 1.417626e-01 1.620960e-01 -3.397673e-04 -3.397673e-04 7.029813e-04
4.731204e-01 -1.019516e-03 -8.584685e-02 1.714050e-03 -1.226032e-04 -9.895971e-04
4.570967e-01 1.581107e-01 4.767440e-02 1.913307e-03 7.136270e-04 4.648902e-04
-9.556700e-02 3.834055e-01 1.699526e-01 -1.573456e-04 7.232980e-04 1.533095e-03
-2.809873e-01 -3.143638e-01 -1.488018e-01 -7.214876e-04 -7.214876e-04 -1.492764e-03
-3.482143e-02 2.158742e-01 1.860592e-01 7.867299e-05 -3.616351e-04 7.665523e-04
5.154687e-02 1.477137e-01 1.334389e-01 -1.787493e-04 -4.792238e-04 4.068519e-04
1.922109e-01 -1.025849e-01 1.916973e-01 -3.685750e-04 2.012620e-04 8.697817e-04
8.011968e-02 1.328621e-01 1.371024e-01 -2.132522e-04 -3.905371e-04 4.783375e-04
-3.668432e-01 -2.917502e-01 1.063575e-01 -1.419842e-03 -1.062876e-03 1.021390e-03
4.494165e-02 -2.816160e-01 -1.987814e-01 -3.851780e-05 1.770683e-04 -1.199082e-03
8.926617e-02 -4.230558e-02 3.725762e-02 -3.730969e-04 2.037206e-04 9.678063e-05
1.756129e-01 -2.320727e-01 -1.907008e-01 000000 000000 -1.212653e-03
1.065455e-02 2.986577e-01 -1.989197e-01 000000 000000 -1.212644e-03
1.076354e-01 1.509166e-01 1.582016e-01 -2.523923e-04 -3.371573e-04 6.161639e-04
3.631337e-03 -3.370904e-01 2.011428e-01 1.428211e-05 -1.997022e-04 1.324834e-03
-3.653198e-02 -1.184285e-01 -9.748843e-02 1.546360e-04 4.146062e-04 -2.548369e-04
-2.777700e-01 3.385116e-01 -1.480178e-01 -7.383159e-04 9.862850e-04 -1.324382e-03
3.340057e-01 -3.314620e-01 9.024568e-02 1.254122e-03 -1.254122e-03 1.021387e-03
1.577311e-01 -4.673304e-01 2.885727e-02 7.398172e-04 -1.983532e-03 1.582450e-04
3.241215e-01 -1.049946e-02 -2.041650e-01 1.997022e-04 -1.428211e-05 -1.324834e-03
-4.497857e-01 -1.870378e-01 -7.306395e-02 -1.786216e-03 -6.662259e-04 -7.463276e-04
1.633526e-01 -4.250389e-01 1.211497e-01 5.421372e-04 -1.453528e-03 1.234018e-03
2.729392e-01 1.965679e-01 2.007487e-01 1.753217e-04 1.312434e-04 1.449184e-03
2.269446e-01 -8.137851e-02 -1.924480e-01 -3.009270e-04 1.122414e-04 -1.038612e-03
8.475392e-02 -3.184530e-01 -1.949998e-01 4.255894e-05 -1.956365e-04 -1.324847e-03
1.619491e-01 5.228706e-02 -1.584749e-01 -4.764703e-04 -1.777118e-04 -5.466581e-04
4.637121e-01 -1.236908e-01 -9.120453e-02 1.733116e-03 -3.770126e-04 -1.021395e-03
-3.309716e-01 -1.225971e-02 1.879103e-01 -1.997022e-04 -1.429688e-05 1.324834e-03
1.012565e-01 1.303133e-01 -1.488415e-01 -3.047563e-04 -4.071076e-04 -5.466755e-04
-4.890598e-01 3.297726e-02 -4.436870e-02 -2.036857e-03 1.456688e-04 -4.648933e-04
-7.904874e-03 -2.891604e-01 -2.076921e-01 000000 000000 -1.339804e-03
4.384912e-01 1.379737e-02 -1.359102e-01 1.485417e-03 1.062423e-04 -1.184570e-03
1.797614e-01 -4.394447e-01 7.861370e-02 6.813892e-04 -1.826860e-03 7.632844e-04
2.559137e-01 4.193836e-01 5.010023e-02 9.786489e-04 1.792264e-03 4.648991e-04
-2.942202e-01 6.900322e-02 1.965418e-01 2.127000e-09 1.479400e-08 1.339814e-03
3.156895e-01 -2.848131e-01 -1.642000e-01 7.214876e-04 -7.214876e-04 -1.492764e-03
2.676395e-01 3.252158e-01 -1.585049e-01 6.114565e-04 8.168188e-04 -1.492753e-03
6.295843e-02 -6.729585e-02 -4.583951e-03 -3.007380e-04 3.007380e-04 3.179044e-05
-4.385787e-02 2.824808e-01 -2.018052e-01 3.852810e-05 -1.770463e-04 -1.199082e-03
-1.105075e-01 4.541500e-01 9.874873e-02 -3.652726e-04 1.679167e-03 9.896100e-04
-1.923032e-01 3.481767e-01 -1.739574e-01 -4.605582e-04 8.434489e-04 -1.405941e-03
-3.299753e-02 4.326588e-01 -1.405035e-01 -9.242927e-05 1.292282e-03 -1.392737e-03
4.551541e-02 -3.994454e-01 -1.723202e-01 5.280735e-05 -7.383302e-04 -1.533131e-03
-4.820326e-04 9.993367e-02 4.013408e-02 -3.033734e-05 -4.240088e-04 9.677921e-05
-1.832544e-01 -4.221752e-01 1.085177e-01 -5.421489e-04 -1.453540e-03 1.234012e-03
-1.624795e-01 -2.858371e-01 -2.008000e-01 -1.049560e-04 -1.922147e-04 -1.449177e-03
-6.710131e-02 4.980714e-01 -1.603660e-02 -1.510248e-04 2.111619e-03 -1.582373e-04
2.465400e-01 1.190587e-01 1.968021e-01 -1.425515e-04 -7.783981e-05 1.074748e-03
-4.770771e-02 2.784145e-01 -1.955967e-01 3.852810e-05 -1.770463e-04 -1.199082e-03
-4.087987e-01 1.110701e-01 1.518232e-01 -1.203868e-03 2.618863e-04 1.324412e-03
3.260412e-01 -7.131999e-02 1.944456e-01 2.139977e-04 -4.655106e-05 1.449163e-03
4.728450e-01 3.593827e-02 1.030417e-01 1.769079e-03 1.265357e-04 1.021397e-03
-1.265298e-01 -1.433091e-01 1.650493e-01 2.523923e-04 3.371573e-04 6.161639e-04
-4.237951e-01 -2.332057e-01 -6.612408e-02 -1.711268e-03 -9.344220e-04 -7.633003e-04
-4.755324e-01 -1.309321e-01 -2.197140e-02 -2.068635e-03 -4.500040e-04 -1.582492e-04
-4.619616e-01 -4.799810e-02 1.288266e-01 -1.547396e-03 -1.106827e-04 1.233999e-03
3.369392e-01 -3.229488e-01 -9.026173e-02 1.254159e-03 -1.254146e-03 -1.021392e-03
3.562618e-01 2.472134e-01 -1.422012e-01 1.037166e-03 7.764181e-04 -1.392747e-03
4.632675e-01 5.597019e-02 1.097718e-01 1.769079e-03 1.265357e-04 1.021397e-03
-4.188036e-01 -2.439938e-01 -6.054510e-02 -1.711268e-03 -9.344220e-04 -7.633003e-04
2.072314e-01 3.991284e-01 -1.193233e-01 7.137000e-04 1.307054e-03 -1.184583e-03
-3.153186e-01 2.659234e-01 -1.622468e-01 -8.168188e-04 6.114565e-04 -1.492753e-03
-9.561785e-02 4.892440e-01 5.071438e-02 -4.340630e-04 1.995387e-03 4.649041e-04
-1.335821e-01 -3.634456e-01 1.885495e-01 -2.412615e-04 -6.468463e-04 1.429890e-03
3.073363e-02 2.313145e-01 -1.923568e-01 -2.291171e-05 -3.203586e-04 -1.038624e-03
1.871860e-01 -4.569383e-01 -1.470570e-03 7.431408e-04 -1.992445e-03 -1.589560e-04
-1.302098e-01 4.469964e-01 -1.066625e-01 -3.652726e-04 1.679167e-03 -9.895923e-04
2.038165e-01 4.058125e-01 -1.220997e-01 7.137000e-04 1.307054e-03 -1.184583e-03
-1.898357e-01 -1.103680e-01 1.836854e-01 3.685608e-04 2.012542e-04 8.697836e-04
-4.190653e-01 -1.477106e-01 1.415357e-01 -1.213902e-03 -4.527631e-04 1.392719e-03
-4.625251e-01 9.913633e-02 1.064030e-01 -1.733069e-03 3.770127e-04 1.021405e-03
-3.862663e-01 5.552183e-02 -1.808860e-01 -6.746002e-04 1.467624e-04 -1.429892e-03
1.440135e-01 1.005926e-01 -1.516781e-01 -4.071076e-04 -3.047563e-04 -5.466787e-04
-1.911793e-01 -4.488119e-01 7.892318e-02 -6.662379e-04 -1.786234e-03 7.463227e-04
-2.218418e-02 1.775392e-01 1.552744e-01 3.004830e-05 -4.200869e-04 6.161657e-04
-3.895804e-01 -3.256105e-01 4.584194e-02 -1.656897e-03 -1.240334e-03 4.712058e-04
-1.430263e-01 -8.799429e-02 1.440525e-01 3.562268e-04 2.666643e-04 4.783522e-04
-4.103231e-01 2.543042e-01 5.531164e-02 -1.792264e-03 9.786489e-04 4.648991e-04
-4.262874e-01 -1.760349e-01 -1.176760e-01 -1.453540e-03 -5.421372e-04 -1.234021e-03
-2.620402e-01 1.029914e-01 -2.104878e-01 1.697774e-04 -6.333947e-05 -1.199103e-03
-4.936216e-01 -2.578820e-02 3.288764e-02 -2.064440e-03 -1.476505e-04 4.711673e-04
7.529987e-02 4.700765e-01 -9.643182e-02 1.265381e-04 1.769113e-03 -1.021397e-03
-2.178254e-01 -2.733697e-01 -1.914078e-01 -2.595265e-04 -3.466888e-04 -1.400446e-03
9.179692e-02 -2.576193e-01 1.921418e-01 -5.676084e-05 1.521776e-04 1.074758e-03
3.834374e-01 -2.234438e-01 -1.375897e-01 1.137108e-03 -6.209088e-04 -1.392748e-03
-2.011531e-01 -1.985115e-01 2.079591e-01 1.281357e-04 1.281357e-04 1.199107e-03
9.147142e-02 -4.411220e-01 1.413129e-01 2.753969e-04 -1.265982e-03 1.392752e-03
4.527406e-01 1.511898e-01 6.757403e-02 1.786248e-03 6.662379e-04 7.463242e-04
-4.039568e-02 -4.256084e-01 -1.594463e-01 -7.279284e-05 -1.017736e-03 -1.492766e-03
8.966493e-02 -7.366374e-02 -7.575256e-02 -3.807849e-04 2.850495e-04 -1.862050e-04
1.742824e-01 -2.331084e-01 2.047631e-01 000000 000000 1.212628e-03
-7.462373e-03 -4.472999e-01 -1.293862e-01 -1.062423e-04 -1.485417e-03 -1.184590e-03
-1.475214e-01 -1.696446e-01 -1.857582e-01 2.969481e-04 2.969417e-04 -8.697722e-04
2.851270e-01 -3.676086e-02 -1.957714e-01 000000 000000 -1.212644e-03
-8.150953e-02 1.543718e-01 -1.527971e-01 2.437197e-04 -4.463382e-04 -5.466799e-04
-2.845099e-01 -2.756269e-01 -1.708502e-01 -6.795261e-04 -6.795261e-04 -1.405945e-03
-9.572991e-03 -1.025000e-01 -1.792277e-02 9.039428e-05 4.155901e-04 -3.179010e-05
2.604231e-02 -4.324125e-01 1.518141e-01 8.789524e-05 -1.228876e-03 1.324402e-03
-3.499364e-01 -8.173762e-02 -1.925875e-01 -4.582842e-04 -9.967792e-05 -1.516569e-03
2.533707e-01 1.500811e-01 1.993999e-01 000000 000000 1.339797e-03
4.781260e-01 4.926495e-02 1.058584e-01 1.714017e-03 1.226008e-04 9.895971e-04
-3.005679e-01 -8.886952e-02 -1.936833e-01 -1.875627e-04 -6.997254e-05 -1.324839e-03
-1.290803e-01 -9.743510e-02 -1.313097e-01 3.562268e-04 2.666643e-04 -4.783491e-04
3.910096e-02 -4.550548e-01 1.144100e-01 1.106827e-04 -1.547396e-03 1.233999e-03
1.295279e-02 4.188472e-01 -1.524083e-01 6.855795e-05 9.585485e-04 -1.405958e-03
2.453374e-01 -4.181612e-01 6.526718e-02 9.344388e-04 -1.711313e-03 7.632703e-04
-3.956968e-01 2.454933e-02 1.616213e-01 -9.585485e-04 6.855795e-05 1.405953e-03
-4.161713e-01 -1.343263e-01 -1.496442e-01 -1.213902e-03 -4.527631e-04 -1.392721e-03
3.352524e-01 -3.458761e-01 8.202481e-02 1.254122e-03 -1.254122e-03 1.021387e-03
-1.506771e-01 4.423508e-01 -1.073751e-01 -6.005253e-04 1.610086e-03 -9.895695e-04
-3.629903e-01 1.381579e-01 -1.824500e-01 -6.935448e-04 2.586802e-04 -1.533121e-03
2.570219e-01 2.700136e-01 1.844667e-01 4.881713e-04 4.881713e-04 1.429924e-03
1.438867e-02 -5.005166e-01 -2.832127e-02 1.517104e-04 -2.121098e-03 -1.589659e-04
-2.633289e-01 -9.981895e-02 1.976632e-01 4.210750e-09 -1.434050e-08 1.212632e-03
-4.406228e-02 1.091046e-01 -4.870259e-02 1.485539e-04 -3.982905e-04 -9.677658e-05
6.170364e-02 -7.110573e-02 -4.749786e-03 -2.548776e-04 3.404727e-04 -3.178972e-05
-4.334195e-01 1.584190e-01 1.084228e-01 -1.610055e-03 6.005266e-04 9.896037e-04
1.191907e-01 -4.320124e-01 1.232193e-01 3.297578e-04 -1.515904e-03 1.234022e-03
2.893034e-01 4.521442e-02 -1.961600e-01 000000 000000 -1.212654e-03
4.219788e-01 1.582193e-01 1.251065e-01 1.395312e-03 5.204260e-04 1.184589e-03
-4.003184e-01 -2.360334e-01 1.233790e-01 -1.361589e-03 -7.434740e-04 1.234017e-03
5.427522e-02 -4.674686e-01 -1.005019e-01 1.225903e-04 -1.714050e-03 -9.895722e-04
7.729253e-02 -5.362310e-02 -4.621065e-02 -3.973726e-04 2.169659e-04 -1.030765e-04
-2.118431e-01 4.522910e-01 -3.267204e-02 -9.919087e-04 1.816539e-03 -4.711887e-04
1.654216e-02 3.933729e-01 1.776611e-01 5.280736e-05 7.383302e-04 1.533131e-03
3.274034e-01 3.282944e-01 -1.154190e-01 1.215120e-03 1.215120e-03 -9.896044e-04
1.743680e-01 -2.213364e-01 -2.066488e-01 -1.085961e-04 1.450644e-04 -1.199100e-03
7.569840e-02 -1.121007e-01 -1.101891e-01 -2.153358e-04 3.943655e-04 -3.574071e-04
-2.832279e-01 3.849393e-04 -1.939006e-01 1.620064e-04 -1.158653e-05 -1.074758e-03
-9.974491e-02 4.182847e-01 -1.555926e-01 -2.618762e-04 1.203858e-03 -1.324375e-03
-3.985966e-01 -2.231145e-01 -1.087337e-01 -1.361589e-03 -7.434857e-04 -1.234040e-03
4.829472e-01 -1.184790e-02 -8.905489e-02 1.901553e-03 -1.360110e-04 -7.462906e-04
-6.004369e-03 -4.617061e-01 1.142024e-01 -1.226008e-04 -1.714017e-03 9.896088e-04
-3.685635e-01 -1.982736e-01 1.606262e-01 -8.955219e-04 -4.889985e-04 1.492746e-03
4.053851e-01 -2.801532e-01 -5.271968e-02 1.634763e-03 -1.223766e-03 -4.649084e-04
1.471079e-01 1.455057e-01 1.747382e-01 -2.617087e-04 -2.617087e-04 7.665622e-04
9.409569e-02 3.963187e-02 3.793952e-02 -3.982905e-04 -1.485539e-04 9.678234e-05
4.186349e-01 9.612908e-02 1.484856e-01 1.203858e-03 2.618863e-04 1.324403e-03
4.489188e-01 -2.290556e-01 -3.422396e-02 1.792264e-03 -9.786489e-04 -4.648914e-04
-3.119681e-01 -3.232382e-01 -1.224387e-01 -1.053028e-03 -1.053028e-03 -1.184575e-03
-1.406024e-01 4.458028e-02 1.264738e-01 4.792238e-04 -1.787493e-04 4.068519e-04
2.111646e-01 -1.177803e-01 1.928026e-01 -2.818875e-04 1.539238e-04 1.038602e-03
-2.598377e-01 -2.220129e-01 1.941512e-01 -1.753195e-04 -1.312434e-04 1.449158e-03
1.091134e-01 -3.568278e-02 8.907021e-02 -4.456532e-04 1.662156e-04 1.861961e-04
-4.030956e-01 -2.778143e-01 -5.335424e-02 -1.656897e-03 -1.240334e-03 -4.711815e-04
2.625463e-01 2.402112e-01 -1.887196e-01 3.316140e-04 3.316140e-04 -1.516530e-03
-1.274703e-01 3.354733e-01 -1.982226e-01 -1.513424e-04 4.057588e-04 -1.400449e-03
7.937118e-02 3.250291e-01 1.999857e-01 4.655106e-05 2.139977e-04 1.449163e-03
-3.027113e-01 2.534952e-03 2.077181e-01 000000 -1.494600e-08 1.212644e-03
4.677752e-01 1.631947e-01 -1.745981e-02 1.992430e-03 7.431408e-04 -1.589674e-04
-9.870590e-03 4.513703e-01 -1.263905e-01 -1.106827e-04 1.547396e-03 -1.234017e-03
-1.494856e-01 -4.088756e-01 -1.423855e-01 -4.527631e-04 -1.213892e-03 -1.392709e-03
-4.256983e-01 2.413440e-01 -6.580949e-02 -1.711268e-03 9.344220e-04 -7.632964e-04
-4.616206e-01 -1.741322e-01 -2.583420e-03 -1.992445e-03 -7.431408e-04 1.589574e-04
-4.067361e-01 2.352497e-01 7.688635e-02 -1.673261e-03 9.136667e-04 7.463298e-04
7.578192e-02 7.927795e-02 -5.369410e-02 -3.005757e-04 -3.005757e-04 -9.677626e-05
-3.178756e-01 -1.262610e-01 -1.908446e-01 -4.057818e-04 -1.513510e-04 -1.400449e-03
1.334767e-01 2.421567e-01 1.962396e-01 -8.684438e-05 -1.590458e-04 1.199098e-03
-4.911798e-01 -1.713617e-02 5.304115e-02 -2.036857e-03 -1.456688e-04 4.648933e-04
3.075327e-01 2.592549e-01 1.741246e-01 8.168188e-04 6.114565e-04 1.492753e-03
-9.323939e-02 -4.456047e-01 1.216102e-01 -3.165534e-04 -1.455176e-03 1.184581e-03
-2.513628e-01 -2.935729e-01 1.814579e-01 -4.137300e-04 -5.526776e-04 1.429911e-03
-1.580370e-01 4.474858e-01 9.855090e-02 -6.198124e-04 1.661777e-03 1.021393e-03
-4.913392e-02 -3.030861e-01 -2.045962e-01 000000 000000 -1.339796e-03
-2.456641e-01 -4.807738e-02 1.954828e-01 3.138344e-04 6.826816e-05 1.038607e-03
1.426648e-01 -1.961916e-01 1.859722e-01 -1.709545e-04 2.283682e-04 9.225059e-04
3.596356e-01 2.190106e-03 -1.911359e-01 4.677759e-04 3.345347e-05 -1.516548e-03
3.107455e-01 -3.798496e-01 -3.745855e-02 1.223766e-03 -1.634749e-03 -4.649089e-04
-2.171581e-01 -3.583685e-01 -1.424756e-01 -6.209088e-04 -1.137118e-03 -1.392757e-03
2.649459e-01 -3.417956e-01 1.439961e-01 7.764181e-04 -1.037176e-03 1.392723e-03
6.481819e-02 4.989201e-01 2.713665e-02 1.510248e-04 2.111619e-03 1.582373e-04
-1.320335e-01 -3.122561e-01 -2.071012e-01 -7.653435e-05 -2.051936e-04 -1.449168e-03
-3.627570e-01 -3.375904e-01 -2.631903e-02 -1.503660e-03 -1.503675e-03 -1.589750e-04
-4.296165e-01 -1.616930e-01 1.157507e-01 -1.453540e-03 -5.421489e-04 1.234011e-03
-2.403165e-03 -2.898045e-01 -2.052089e-01 000000 000000 -1.212644e-03
2.955079e-01 -2.335568e-01 1.857019e-01 3.754330e-04 -2.810461e-04 1.516561e-03
-4.982108e-01 4.037760e-02 4.919770e-02 -2.036857e-03 1.456834e-04 4.649071e-04
4.180182e-01 -2.239658e-01 -7.423144e-02 1.673217e-03 -9.136503e-04 -7.463122e-04
2.369506e-01 3.179889e-02 1.867172e-01 -3.203586e-04 -2.291611e-05 1.038608e-03
4.881671e-01 -9.321857e-02 -5.626443e-03 2.077921e-03 -4.520161e-04 -1.589670e-04
2.213255e-01 -4.538328e-01 7.597472e-03 1.014577e-03 -1.858053e-03 1.582465e-04
-3.276187e-01 -8.552280e-02 2.005233e-01 -2.139977e-04 -4.655106e-05 1.449185e-03
8.954423e-02 2.267674e-01 1.881381e-01 -9.969081e-05 -2.672841e-04 9.224949e-04
4.238688e-01 -1.962098e-01 9.634566e-02 1.556650e-03 -8.499996e-04 1.021404e-03
3.776786e-01 5.081400e-02 1.826156e-01 7.383302e-04 5.280736e-05 1.533111e-03
3.692315e-01 2.850713e-01 -1.031126e-01 1.375675e-03 1.029818e-03 -9.896002e-04
2.594555e-01 -2.114269e-01 -1.981916e-01 1.753217e-04 -1.312434e-04 -1.449184e-03
-3.804430e-01 3.092161e-01 6.727950e-02 -1.526187e-03 1.142494e-03 7.463137e-04
2.821054e-01 -1.258952e-01 -2.106411e-01 000000 000000 -1.339821e-03
2.655474e-01 -2.180707e-01 -1.941847e-01 3.466888e-04 -2.595265e-04 -1.400446e-03
2.421286e-01 -3.739417e-01 -1.344883e-01 7.137000e-04 -1.307042e-03 -1.184601e-03
1.254609e-02 -1.062834e-01 4.506076e-02 -3.230446e-05 4.515922e-04 1.030671e-04
-3.219235e-01 2.397222e-01 1.769509e-01 -7.693174e-04 5.759020e-04 1.405947e-03
2.753611e-01 -4.102854e-01 -4.300689e-02 1.240334e-03 -1.656897e-03 -4.711815e-04
4.029958e-01 -2.710775e-01 -9.004833e-02 1.419865e-03 -1.062902e-03 -1.021390e-03
2.080604e-02 -2.082498e-01 -1.789599e-01 -2.640043e-05 3.691651e-04 -7.665535e-04
-2.346658e-01 -4.369786e-01 -1.042310e-02 -1.019138e-03 -1.866400e-03 1.589575e-04
-1.621797e-01 3.505903e-01 -1.784475e-01 -3.547490e-04 6.496738e-04 -1.533126e-03
4.190586e-01 -2.062318e-01 -1.040388e-01 1.508232e-03 -8.235461e-04 -9.896112e-04
4.060674e-01 -1.874072e-01 1.307906e-01 1.307042e-03 -7.137000e-04 1.184585e-03
2.108537e-01 4.586764e-01 -3.940478e-03 1.014577e-03 1.858068e-03 -1.582475e-04
-3.381868e-01 -2.430936e-01 1.564770e-01 -8.168188e-04 -6.114565e-04 1.492753e-03
-1.620158e-01 -3.979233e-01 -1.503031e-01 -4.527631e-04 -1.213892e-03 -1.392709e-03
2.411624e-01 1.946089e-01 1.983686e-01 000000 000000 1.339826e-03
1.511479e-01 8.281601e-02 -1.542476e-01 -4.463382e-04 -2.437197e-04 -5.466799e-04
-2.569632e-02 -8.842914e-02 -2.628468e-03 9.039428e-05 4.155901e-04 3.178515e-05
-9.583534e-02 -4.211766e-01 1.436534e-01 -2.753969e-04 -1.265982e-03 1.392748e-03
7.810816e-03 -1.319406e-01 1.030587e-01 -3.551765e-05 4.964446e-04 2.866132e-04
-6.337606e-03 -4.430859e-01 1.533803e-01 -9.242927e-05 -1.292292e-03 1.392748e-03
1.593358e-01 -4.084706e-01 1.258610e-01 5.204260e-04 -1.395312e-03 1.184589e-03
-7.522928e-02 -3.938531e-01 1.641194e-01 -2.168883e-04 -9.970160e-04 1.492764e-03
-2.994380e-01 1.892634e-01 1.949736e-01 -3.800938e-04 2.075445e-04 1.400440e-03
2.206142e-02 4.530407e-01 -1.266727e-01 1.106827e-04 1.547396e-03 -1.233997e-03
-4.485169e-01 -1.462996e-01 7.801937e-02 -1.661806e-03 -6.198312e-04 1.021393e-03
-1.782226e-01 1.918854e-01 -1.924774e-01 1.148472e-04 -1.148494e-04 -1.074761e-03
1.450808e-02 2.145365e-01 1.812222e-01 -2.996070e-05 -4.188791e-04 8.697959e-04
8.873266e-02 -2.177631e-01 1.888951e-01 -9.969081e-05 2.672841e-04 9.225036e-04
3.381312e-01 -1.257109e-01 1.894699e-01 4.394061e-04 -1.638929e-04 1.516569e-03
2.110161e-01 -4.255810e-01 -7.780810e-02 9.344220e-04 -1.711282e-03 -7.632577e-04
1.579682e-01 -3.738607e-01 1.781491e-01 3.358270e-04 -9.004051e-04 1.405947e-03
2.371081e-02 -4.070080e-01 -1.646427e-01 7.279284e-05 -1.017727e-03 -1.492759e-03
-1.115642e-01 -4.823430e-01 -1.864738e-02 -4.520161e-04 -2.077921e-03 -1.589670e-04
-4.254399e-01 1.707420e-01 -1.156585e-01 -1.395312e-03 5.204260e-04 -1.184589e-03
-4.414518e-01 4.266741e-02 1.212076e-01 -1.485417e-03 1.062423e-04 1.184570e-03
3.048992e-01 -3.155109e-01 -1.452878e-01 9.161193e-04 -9.161193e-04 -1.392720e-03
-3.009974e-01 -2.640722e-01 1.644393e-01 -6.795261e-04 -6.795261e-04 1.405945e-03
2.758566e-01 2.101686e-01 -1.843957e-01 3.466888e-04 2.595265e-04 -1.400421e-03
-2.422471e-01 -4.198957e-01 9.150331e-02 -8.235431e-04 -1.508203e-03 9.896096e-04
-6.023799e-02 -4.101423e-01 -1.560522e-01 -2.042763e-04 -9.390326e-04 -1.405950e-03
-1.212815e-01 -4.048944e-01 1.547362e-01 -4.305403e-04 -1.154339e-03 1.324379e-03
1.005452e-01 -1.173684e-01 -1.357728e-01 -2.666643e-04 3.562268e-04 -4.783491e-04
1.441061e-01 -6.210839e-02 1.249910e-01 -4.209962e-04 1.570264e-04 3.574132e-04
3.087115e-01 -7.240932e-02 -2.022389e-01 1.956365e-04 -4.255894e-05 -1.324826e-03
8.975873e-02 -4.085422e-01 1.476861e-01 2.618863e-04 -1.203868e-03 1.324414e-03
1.840956e-01 3.604403e-01 1.727252e-01 3.547490e-04 6.496738e-04 1.533126e-03
4.037587e-02 1.543671e-01 -1.386613e-01 -1.087196e-04 -4.997898e-04 -4.068539e-04
3.600103e-01 3.489412e-01 -5.201019e-03 1.503675e-03 1.503675e-03 -1.589758e-04
4.757352e-01 3.619553e-03 -8.829308e-02 1.769113e-03 1.265381e-04 -1.021387e-03
3.573681e-01 -1.853860e-01 -1.629575e-01 8.434489e-04 -4.605582e-04 -1.405960e-03
9.526669e-02 5.416178e-02 3.736956e-02 -3.730969e-04 -2.037206e-04 9.677628e-05
-2.922601e-01 3.893605e-01 -4.867124e-02 -1.223766e-03 1.634749e-03 -4.649089e-04
-4.852068e-01 7.428009e-02 4.508950e-02 -2.022417e-03 4.399498e-04 4.712020e-04
4.423010e-01 -1.631536e-01 -9.234041e-02 1.661809e-03 -6.198244e-04 -1.021405e-03
3.504416e-01 -1.623053e-01 1.763434e-01 6.496738e-04 -3.547425e-04 1.533106e-03
-1.989310e-01 -2.449887e-01 1.994429e-01 -1.199822e-04 -1.602777e-04 1.324834e-03
1.605238e-01 -8.691334e-02 -1.603753e-01 -4.217202e-04 2.302833e-04 -7.029688e-04
-5.327939e-02 -4.917472e-01 1.021216e-02 -1.510248e-04 -2.111619e-03 1.582373e-04
3.709800e-01 3.024791e-01 8.711711e-02 1.526187e-03 1.142494e-03 7.463208e-04
3.973697e-02 -3.649534e-01 -1.758132e-01 3.345347e-05 -4.677759e-04 -1.516548e-03
-3.309520e-01 -3.365561e-01 -9.757148e-02 -1.215107e-03 -1.215120e-03 -9.895995e-04
-2.326859e-01 2.001916e-02 -1.890805e-01 2.845439e-04 -2.035226e-05 -9.225029e-04
-4.435273e-01 1.103538e-01 1.197140e-01 -1.455164e-03 3.165534e-04 1.184579e-03
-4.149443e-01 -2.463721e-01 8.363275e-02 -1.556693e-03 -8.500031e-04 1.021401e-03
1.084459e-02 -1.080411e-01 -4.144841e-02 -3.032277e-05 4.240088e-04 -9.677147e-05
-2.822615e-01 -1.496315e-01 1.884274e-01 -1.757007e-04 -9.594065e-05 1.324820e-03
1.117833e-01 8.442474e-03 -7.431631e-02 -4.744333e-04 -3.391989e-05 -1.861945e-04
-1.346822e-01 -3.701207e-01 1.733856e-01 -2.586737e-04 -6.935448e-04 1.533094e-03
8.969609e-02 -4.824121e-01 -2.757432e-02 4.500040e-04 -2.068635e-03 -1.582492e-04
3.709142e-01 -3.071596e-01 8.625691e-02 1.419837e-03 -1.062881e-03 1.021371e-03
1.774582e-01 4.627096e-02 1.684602e-01 -4.695163e-04 -1.021423e-04 7.029765e-04
-3.092499e-01 -1.696173e-01 -1.839758e-01 -3.801154e-04 -2.075563e-04 -1.400440e-03
-3.226428e-01 6.865602e-02 -1.907432e-01 -2.139736e-04 4.654584e-05 -1.449185e-03
-2.934105e-01 3.338852e-01 -1.356851e-01 -9.161193e-04 9.161193e-04 -1.392720e-03
-2.384602e-01 2.214758e-02 -1.906016e-01 3.203586e-04 -2.291171e-05 -1.038624e-03
3.439176e-01 2.661688e-01 -1.484018e-01 9.862850e-04 7.383159e-04 -1.324382e-03
2.184642e-02 -1.040222e-01 7.616906e-02 -1.011179e-04 4.647832e-04 1.862011e-04
-1.298868e-01 3.126670e-01 -1.978643e-01 -6.996694e-05 1.875899e-04 -1.324839e-03
-3.524131e-01 1.184871e-01 -1.785497e-01 -6.468252e-04 2.412392e-04 -1.429894e-03
-1.305555e-01 -3.072540e-02 -1.089003e-01 4.863485e-04 1.057893e-04 -2.866175e-04
3.147475e-02 -1.003997e-01 3.018055e-02 -1.485539e-04 3.982905e-04 9.678234e-05
-4.702423e-01 -8.943538e-02 -7.106439e-02 -1.905212e-03 -4.144608e-04 -7.633150e-04
-2.189294e-01 -2.009993e-01 2.036103e-01 000000 000000 1.339819e-03
-1.130359e-01 -1.805305e-01 -1.812356e-01 2.012620e-04 3.685750e-04 -8.697836e-04
-4.706782e-01 9.830615e-02 5.955003e-02 -1.995387e-03 4.340630e-04 4.648878e-04
-3.095285e-01 -3.399241e-01 1.044646e-01 -1.215084e-03 -1.215097e-03 9.895987e-04
2.506592e-01 2.972921e-02 1.875964e-01 -3.203586e-04 -2.291611e-05 1.038608e-03
-3.716489e-01 2.899447e-01 -1.071700e-01 -1.375675e-03 1.029831e-03 -9.895859e-04
1.575159e-01 -3.783026e-01 1.623570e-01 3.565637e-04 -9.560058e-04 1.492768e-03
2.691289e-01 1.177731e-01 -2.023759e-01 000000 000000 -1.212632e-03
-2.013254e-01 1.609271e-01 2.041446e-01 1.300226e-04 -9.733263e-05 1.074746e-03
-9.375310e-02 4.206173e-01 1.457698e-01 -2.618863e-04 1.203858e-03 1.324397e-03
-3.209241e-01 3.222915e-02 -1.998977e-01 -1.997022e-04 1.428211e-05 -1.324834e-03
1.437036e-01 -4.718556e-01 1.051012e-02 7.398172e-04 -1.983532e-03 1.582450e-04
-4.140601e-01 2.853593e-01 -1.139780e-02 -1.702363e-03 1.274373e-03 1.589327e-04
-1.898818e-01 3.412922e-01 -1.762614e-01 -3.547490e-04 6.496738e-04 -1.533126e-03
-3.602121e-01 -2.910523e-01 1.073255e-01 -1.419842e-03 -1.062876e-03 1.021390e-03
2.187007e-01 -7.673117e-02 -1.846877e-01 -2.672841e-04 9.969081e-05 -9.225036e-04
-2.631626e-01 2.242974e-01 -1.958312e-01 -3.062221e-04 3.062221e-04 -1.400426e-03
3.096249e-01 -1.096641e-01 1.880484e-01 2.051958e-04 -7.653435e-05 1.449197e-03
1.896863e-02 9.174214e-02 3.635329e-02 -9.242125e-05 -4.248606e-04 3.249934e-05
4.951942e-02 -4.776923e-01 -7.797240e-02 1.265381e-04 -1.769113e-03 -1.021387e-03
-1.782983e-01 3.313755e-01 1.779667e-01 -3.308647e-04 6.059325e-04 1.429903e-03
1.808896e-01 -2.979429e-01 -1.822426e-01 2.075445e-04 -3.800938e-04 -1.400440e-03
2.901981e-01 -3.846088e-01 -9.189702e-02 1.142473e-03 -1.526159e-03 -7.462863e-04
4.885462e-01 2.000677e-02 4.996356e-03 2.121098e-03 1.517104e-04 1.589477e-04
2.290576e-01 4.334508e-01 3.431065e-02 1.014577e-03 1.858068e-03 1.582549e-04
1.045751e-02 4.504959e-01 -1.406183e-01 1.062423e-04 1.485417e-03 -1.184590e-03
-2.730024e-01 -3.650365e-01 1.322841e-01 -8.924493e-04 -1.192164e-03 1.184569e-03
2.849568e-01 -3.389730e-01 1.385885e-01 7.764181e-04 -1.037176e-03 1.392723e-03
-3.831405e-01 1.674765e-01 -1.538973e-01 -9.559974e-04 3.565721e-04 -1.492762e-03
-1.655932e-01 -1.579491e-01 -1.896550e-01 2.017164e-04 2.017120e-04 -9.224974e-04
-3.464468e-01 -6.380052e-02 1.888234e-01 -4.231923e-04 -9.205733e-05 1.400447e-03
-1.762920e-01 2.252379e-01 -1.933193e-01 1.085939e-04 -1.450644e-04 -1.199076e-03
2.666764e-01 6.329271e-02 1.955994e-01 -1.770683e-04 -3.851780e-05 1.199100e-03
4.326219e-01 8.106163e-02 -1.286001e-01 1.455164e-03 3.165534e-04 -1.184579e-03
-3.121680e-01 -9.242924e-02 -1.987283e-01 -1.956407e-04 -4.254476e-05 -1.324847e-03
8.459689e-02 -9.960509e-02 1.222594e-01 -2.692749e-04 3.597071e-04 3.574113e-04
4.455672e-01 -2.246511e-01 -4.158279e-03 1.866400e-03 -1.019138e-03 1.589575e-04
2.699713e-01 3.914977e-01 6.187531e-02 1.168483e-03 1.560899e-03 7.632965e-04
1.020611e-01 -8.192953e-02 9.853763e-02 -3.542575e-04 2.651916e-04 2.548364e-04
-2.378196e-01 3.194458e-01 1.782052e-01 -5.759020e-04 7.693174e-04 1.405935e-03
-1.019041e-01 -2.326145e-01 1.938606e-01 9.969081e-05 2.672841e-04 9.224949e-04
-3.928974e-01 4.188485e-02 1.766107e-01 -6.886162e-04 4.924709e-05 1.429881e-03
-4.053618e-01 -2.634560e-01 -7.181902e-02 -1.560871e-03 -1.168462e-03 -7.632685e-04
1.641255e-01 -6.357579e-02 -1.535723e-01 -4.764703e-04 1.777118e-04 -5.466686e-04
6.126106e-03 -2.895291e-01 -1.943369e-01 000000 000000 -1.212644e-03
-3.658915e-02 -1.815227e-01 -1.649656e-01 1.021423e-04 4.695163e-04 -7.029765e-04
4.484798e-02 4.646180e-01 -1.077815e-01 1.226032e-04 1.714050e-03 -9.895971e-04
-3.759615e-01 -2.700963e-01 -1.213214e-01 -1.241920e-03 -9.296902e-04 -1.234018e-03
7.377859e-02 -9.249553e-02 8.631649e-02 -2.651916e-04 3.542575e-04 2.548387e-04
2.847529e-01 2.256762e-01 -1.863513e-01 3.754286e-04 2.810461e-04 -1.516549e-03
-4.160053e-01 -2.764339e-01 8.532138e-03 -1.694762e-03 -1.268680e-03 1.582727e-04
-2.608204e-01 -2.155411e-02 -1.967995e-01 1.619883e-04 1.158523e-05 -1.074753e-03
-2.479044e-01 -4.177061e-01 9.180819e-02 -8.499996e-04 -1.556663e-03 1.021394e-03
2.097499e-01 -3.741279e-01 -1.367063e-01 5.904413e-04 -1.081317e-03 -1.324371e-03
2.999471e-01 -1.022315e-01 1.852512e-01 1.875899e-04 -6.996694e-05 1.324847e-03
3.301128e-01 2.315286e-01 1.726389e-01 7.693174e-04 5.759020e-04 1.405935e-03
3.436610e-01 5.852672e-02 -1.925262e-01 4.231683e-04 9.205210e-05 -1.400438e-03
1.732692e-01 4.668184e-01 -2.898520e-02 7.398172e-04 1.983532e-03 -1.582574e-04
-7.940248e-02 -6.582182e-02 2.179635e-02 3.480739e-04 2.605710e-04 3.249959e-05
-1.487578e-01 5.274188e-03 1.387612e-01 4.438374e-04 -3.173825e-05 4.783280e-04
-3.448740e-01 3.613189e-01 5.221149e-02 -1.443953e-03 1.443953e-03 4.649089e-04
2.738284e-01 1.922015e-01 -1.932332e-01 1.753217e-04 1.312434e-04 -1.449194e-03
3.871474e-01 1.096424e-01 1.587160e-01 9.970076e-04 2.168883e-04 1.492751e-03
1.086972e-01 -2.482386e-01 1.926864e-01 -6.332825e-05 1.697835e-04 1.199097e-03
1.820490e-01 -4.688800e-01 -1.685459e-02 7.398172e-04 -1.983532e-03 -1.582464e-04
4.276383e-02 2.540869e-01 -1.931666e-01 -3.452567e-05 -1.587071e-04 -1.074745e-03
-2.987961e-01 -5.049194e-02 1.917893e-01 -2.127000e-09 1.479400e-08 1.212647e-03
1.779678e-01 -1.734961e-01 -1.980874e-01 -2.271039e-04 2.271083e-04 -1.038623e-03
3.356438e-01 3.570222e-01 3.756921e-02 1.463507e-03 1.463507e-03 4.712049e-04
-2.521013e-01 1.790492e-01 2.001065e-01 -1.602799e-04 1.199822e-04 1.324845e-03
1.197688e-01 1.353403e-01 -1.525045e-01 -3.047563e-04 -4.071076e-04 -5.466755e-04
4.185233e-01 -2.103777e-01 -1.120978e-01 1.508232e-03 -8.235461e-04 -9.896112e-04
-2.733580e-01 -2.677603e-01 -1.854040e-01 -4.881713e-04 -4.881649e-04 -1.429895e-03
2.689330e-01 -4.133675e-01 4.092283e-02 9.919087e-04 -1.816539e-03 4.711796e-04
2.315858e-01 2.742567e-01 -1.910041e-01 3.062221e-04 3.062221e-04 -1.400409e-03
1.088703e-01 1.180653e-01 -1.450965e-01 -3.146377e-04 -3.146377e-04 -4.783323e-04
3.041659e-01 -1.178642e-01 1.945145e-01 1.875899e-04 -6.996694e-05 1.324847e-03
-3.003422e-01 2.676278e-02 1.978441e-01 000000 000000 1.339804e-03
