4.530808e-01 -4.414913e-02 1.239613e-01 1.485417e-03 -1.062423e-04 1.184570e-03
-3.260594e-01 3.616119e-01 6.816285e-02 -1.348072e-03 1.348058e-03 7.462900e-04
-3.518774e-01 6.732811e-02 -1.904951e-01 -4.231683e-04 9.205210e-05 -1.400447e-03
-9.316026e-02 -4.795492e-01 6.270741e-02 -4.144544e-04 -1.905246e-03 7.632725e-04
3.752940e-01 2.303191e-01 1.413412e-01 1.137118e-03 6.209088e-04 1.392757e-03
1.710109e-01 3.607471e-01 -1.734001e-01 3.547490e-04 6.496738e-04 -1.533127e-03
-2.818861e-01 -3.804051e-01 -9.634825e-02 -1.062902e-03 -1.419865e-03 -1.021390e-03
-2.201999e-01 1.988025e-02 1.836177e-01 4.188791e-04 -2.996070e-05 8.697959e-04
3.264176e-01 5.894990e-02 -1.968198e-01 2.139977e-04 4.655106e-05 -1.449163e-03
-3.898743e-01 1.161429e-01 -1.684892e-01 -9.004051e-04 3.358355e-04 -1.405960e-03
-1.517639e-01 3.336557e-01 1.881736e-01 -1.638885e-04 4.394017e-04 1.516563e-03
-8.814174e-02 -4.144666e-01 1.562596e-01 -2.618863e-04 -1.203868e-03 1.324419e-03
-2.221686e-01 3.501201e-01 -1.630983e-01 -4.605582e-04 8.434489e-04 -1.405941e-03
7.237719e-02 -4.774315e-01 7.927875e-02 4.052440e-04 -1.862881e-03 7.463414e-04
1.771875e-02 -3.152330e-01 -1.992067e-01 1.428211e-05 -1.997022e-04 -1.324827e-03
-4.056911e-01 2.799209e-01 4.726944e-02 -1.656882e-03 1.240334e-03 4.712000e-04
-2.142310e-01 -3.763473e-01 1.476536e-01 -5.904514e-04 -1.081317e-03 1.324418e-03
5.009817e-02 -4.369134e-01 1.417074e-01 9.242927e-05 -1.292282e-03 1.392740e-03
3.760019e-01 1.043223e-01 -1.777419e-01 6.746021e-04 1.467491e-04 -1.429904e-03
-3.206279e-01 -3.813897e-01 1.689145e-02 -1.268680e-03 -1.694747e-03 1.582371e-04
1.054313e-02 4.675131e-01 1.074347e-01 1.265357e-04 1.769079e-03 1.021387e-03
-6.915131e-02 2.976754e-01 -1.994408e-01 1.479400e-08 2.127000e-09 -1.339814e-03
2.208061e-01 3.292157e-01 1.747047e-01 4.435935e-04 5.925734e-04 1.533121e-03
4.704161e-01 -1.610486e-01 -2.259707e-02 1.983532e-03 -7.398172e-04 -1.582574e-04
2.223020e-01 1.913428e-01 -1.994410e-01 000000 000000 -1.212643e-03
-1.886432e-01 -4.598872e-01 2.556275e-02 -7.398172e-04 -1.983532e-03 1.582464e-04
-3.791935e-01 2.657855e-01 -1.142017e-01 -1.241920e-03 9.297019e-04 -1.234011e-03
-3.410747e-01 -1.364030e-01 -1.876838e-01 -4.393976e-04 -1.639022e-04 -1.516551e-03
3.232933e-01 3.798303e-01 1.222628e-02 1.268680e-03 1.694747e-03 1.582656e-04
-8.051953e-02 6.705009e-02 4.152538e-02 3.402970e-04 -2.547492e-04 9.677825e-05
-6.341747e-02 2.323894e-01 1.905678e-01 6.826816e-05 -3.138344e-04 1.038607e-03
1.871426e-01 4.581633e-01 3.781256e-02 7.232877e-04 1.939215e-03 4.711850e-04
-6.485651e-02 -4.548641e-01 -1.198678e-01 -1.106827e-04 -1.547396e-03 -1.233997e-03
-1.698755e-01 1.187827e-01 -1.769159e-01 2.962867e-04 -2.217935e-04 -7.665569e-04
-2.605199e-01 -1.011824e-01 1.987042e-01 1.697706e-04 6.330770e-05 1.199090e-03
-2.286068e-02 -3.562806e-01 1.908488e-01 -3.345347e-05 -4.677759e-04 1.516548e-03
1.792155e-01 -5.159006e-02 -1.640430e-01 -4.695163e-04 1.021423e-04 -7.029765e-04
-7.515111e-02 4.931056e-01 -1.223801e-02 -4.520161e-04 2.077906e-03 -1.589476e-04
3.701873e-01 3.344769e-01 6.065053e-03 1.496953e-03 1.496953e-03 1.582652e-04
-4.467533e-01 4.305878e-03 1.354692e-01 -1.485417e-03 1.062423e-04 1.184570e-03
1.568893e-01 -4.728989e-01 -1.092005e-02 7.431408e-04 -1.992445e-03 -1.589560e-04
-4.018720e-01 -2.901867e-01 -3.367524e-02 -1.656897e-03 -1.240334e-03 -4.711815e-04
-2.579674e-01 -2.971140e-01 -1.763333e-01 -4.881713e-04 -4.881649e-04 -1.429895e-03
-9.089893e-02 -3.951662e-01 1.687781e-01 -2.042763e-04 -9.390326e-04 1.405956e-03
3.728889e-01 -5.141633e-02 -1.844904e-01 7.383302e-04 -5.280735e-05 -1.533111e-03
-2.476410e-01 -4.317757e-01 -1.450009e-02 -1.019138e-03 -1.866400e-03 -1.589336e-04
-7.169982e-02 4.934026e-01 -1.817018e-02 -4.520161e-04 2.077906e-03 -1.589476e-04
6.919542e-02 -3.209865e-01 1.972927e-01 4.255894e-05 -1.956365e-04 1.324826e-03
1.671852e-01 6.673328e-02 1.598590e-01 -3.946018e-04 -1.471769e-04 6.161555e-04
3.570144e-01 5.761934e-02 1.895810e-01 4.231683e-04 9.205210e-05 1.400447e-03
1.992765e-01 -3.579078e-01 1.659254e-01 4.889985e-04 -8.955219e-04 1.492746e-03
-3.769242e-01 3.256502e-01 -2.445094e-02 -1.702363e-03 1.274373e-03 -1.589479e-04
-2.208981e-01 -1.029703e-01 -1.913923e-01 2.819035e-04 1.539326e-04 -1.038618e-03
1.412964e-01 1.423150e-01 1.737135e-01 -2.617087e-04 -2.617087e-04 7.665622e-04
-5.330565e-02 8.536513e-02 9.693769e-03 2.083763e-04 -3.816233e-04 3.250042e-05
5.384242e-02 -2.783508e-01 1.993060e-01 -3.851780e-05 1.770683e-04 1.199100e-03
-8.867635e-02 -3.137974e-01 1.977285e-01 -4.255894e-05 -1.956365e-04 1.324847e-03
1.404694e-01 3.652237e-01 -1.769207e-01 2.586802e-04 6.935448e-04 -1.533121e-03
2.395563e-01 2.947402e-01 1.826047e-01 4.137300e-04 5.526712e-04 1.429917e-03
-4.003901e-01 2.382464e-01 1.100058e-01 -1.508203e-03 8.235302e-04 9.895765e-04
-1.154816e-01 -4.253036e-01 -1.410030e-01 -2.753969e-04 -1.265982e-03 -1.392752e-03
1.161197e-01 2.953202e-01 1.989670e-01 6.996694e-05 1.875899e-04 1.324839e-03
-1.008488e-01 -8.505228e-02 1.079660e-01 3.984475e-04 2.982758e-04 2.866263e-04
2.338154e-01 -3.900373e-01 1.248320e-01 7.434857e-04 -1.361600e-03 1.234046e-03
-6.271651e-02 -1.404795e-01 -1.365374e-01 1.555093e-04 4.169178e-04 -4.783359e-04
-3.828823e-02 2.332693e-01 1.891816e-01 6.065584e-05 -2.787648e-04 9.224961e-04
-1.828166e-01 4.524719e-01 6.414170e-02 -6.813892e-04 1.826874e-03 7.633017e-04
2.566517e-01 -3.403475e-01 1.538995e-01 7.383159e-04 -9.862850e-04 1.324397e-03
4.944529e-01 -2.979926e-02 -3.498667e-02 2.064440e-03 -1.476505e-04 -4.711673e-04
-1.789527e-01 4.635702e-01 2.470286e-02 -7.398172e-04 1.983532e-03 1.582450e-04
2.993106e-01 1.813149e-01 1.931403e-01 4.116089e-04 2.247559e-04 1.516561e-03
-2.247642e-01 4.020891e-01 -1.169878e-01 -7.434857e-04 1.361589e-03 -1.234040e-03
-1.843464e-01 -6.196654e-02 -1.697109e-01 4.502026e-04 1.679135e-04 -7.029734e-04
-2.784478e-02 -1.645133e-01 -1.487542e-01 9.458446e-05 4.348100e-04 -4.783481e-04
-3.397312e-01 -3.509389e-01 -6.274645e-02 -1.378698e-03 -1.378684e-03 -7.632586e-04
1.767025e-01 1.127043e-02 1.578710e-01 -4.200869e-04 -3.004830e-05 6.161657e-04
-1.444387e-01 -1.264790e-01 1.677897e-01 2.978057e-04 2.978057e-04 6.161626e-04
2.140542e-01 -6.959603e-02 1.854632e-01 -3.934709e-04 1.467555e-04 8.697910e-04
4.322425e-01 2.359748e-01 -4.754103e-02 1.792264e-03 9.786489e-04 -4.648823e-04
1.922159e-02 4.648581e-01 1.109580e-01 1.226008e-04 1.714017e-03 9.896064e-04
3.265231e-01 3.132704e-01 1.273225e-01 1.053028e-03 1.053028e-03 1.184597e-03
2.687552e-01 -4.063279e-01 -6.794824e-02 1.168462e-03 -1.560871e-03 -7.632685e-04
3.770409e-01 3.039790e-01 7.391658e-02 1.560899e-03 1.168483e-03 7.632894e-04
4.362299e-01 -1.413906e-01 1.201138e-01 1.453540e-03 -5.421489e-04 1.234012e-03
5.256626e-02 8.662818e-02 -1.978397e-02 -2.083763e-04 -3.816233e-04 -3.250042e-05
3.994783e-01 -2.009366e-01 -1.342244e-01 1.307042e-03 -7.137000e-04 -1.184559e-03
-2.335693e-01 2.536678e-01 -1.947066e-01 -3.062221e-04 3.062221e-04 -1.400426e-03
1.160026e-01 -4.880696e-02 -9.761920e-02 -4.663284e-04 1.739348e-04 -2.866242e-04
1.253292e-01 4.082100e-01 -1.538975e-01 4.305504e-04 1.154339e-03 -1.324375e-03
-3.045934e-02 -2.522213e-01 1.946475e-01 2.291611e-05 3.203586e-04 1.038616e-03
-1.457891e-02 -2.713018e-01 -1.975252e-01 1.158653e-05 1.620064e-04 -1.074758e-03
4.390921e-01 9.016934e-02 1.325749e-01 1.455164e-03 3.165534e-04 1.184555e-03
5.055889e-03 -4.995335e-01 1.399609e-03 1.517104e-04 -2.121098e-03 1.589477e-04
-2.605164e-01 -3.770888e-01 1.202893e-01 -9.296902e-04 -1.241920e-03 1.233992e-03
3.003464e-01 6.718021e-02 -1.994410e-01 000000 000000 -1.339814e-03
2.422309e-01 4.274338e-01 5.291009e-02 9.786489e-04 1.792264e-03 4.648991e-04
-4.291703e-01 1.326854e-01 -1.322537e-01 -1.395312e-03 5.204260e-04 -1.184589e-03
1.373245e-01 -1.327151e-02 1.170797e-01 -4.481761e-04 3.206433e-05 3.574165e-04
-2.899231e-01 3.440941e-01 1.313407e-01 -9.296902e-04 1.241920e-03 1.234032e-03
4.235294e-01 1.868940e-01 -1.150829e-01 1.395312e-03 5.204260e-04 -1.184606e-03
2.084377e-01 -2.870761e-01 1.915525e-01 2.595265e-04 -3.466888e-04 1.400446e-03
3.551039e-02 -4.663856e-01 1.062943e-01 1.226008e-04 -1.714017e-03 9.895971e-04
-3.840456e-01 2.871633e-01 -8.533393e-02 -1.526159e-03 1.142473e-03 -7.463208e-04
1.273994e-01 1.628766e-01 1.767039e-01 -2.217935e-04 -2.962867e-04 7.665483e-04
1.696251e-01 -2.786523e-01 1.976704e-01 1.049560e-04 -1.922147e-04 1.449189e-03
-1.265584e-01 5.335002e-02 -1.162014e-01 4.209962e-04 -1.570264e-04 -3.574168e-04
6.373677e-02 -4.219083e-01 -1.543209e-01 2.753969e-04 -1.265982e-03 -1.392748e-03
2.835814e-01 6.903492e-02 1.994410e-01 000000 000000 1.212647e-03
4.920226e-01 -2.637272e-04 5.488945e-02 2.064440e-03 -1.476505e-04 4.711889e-04
-4.015870e-01 -2.559929e-01 -9.341302e-02 -1.508232e-03 -8.235590e-04 -9.896096e-04
-2.700764e-01 3.366884e-01 -1.491405e-01 -7.383159e-04 9.862850e-04 -1.324382e-03
-2.684313e-01 4.003546e-01 -8.065942e-02 -1.168462e-03 1.560871e-03 -7.632685e-04
4.733046e-02 1.321351e-01 1.201256e-01 -1.570264e-04 -4.209962e-04 3.574132e-04
-1.640139e-01 3.041698e-01 -1.943854e-01 -2.075445e-04 3.800938e-04 -1.400440e-03
-3.582312e-02 1.561093e-01 1.426928e-01 9.458446e-05 -4.348100e-04 4.783374e-04
1.995139e-01 -4.259269e-01 -1.033192e-01 8.500161e-04 -1.556693e-03 -1.021411e-03
-4.867332e-02 -8.791171e-02 9.896347e-03 2.038156e-04 3.732769e-04 3.178948e-05
-1.346508e-01 -4.785868e-01 3.080169e-02 -4.399498e-04 -2.022417e-03 4.712020e-04
-3.932361e-01 -2.276052e-01 -1.250442e-01 -1.307054e-03 -7.137000e-04 -1.184593e-03
-2.440084e-02 3.828027e-01 -1.806465e-01 -4.925852e-05 6.885877e-04 -1.429881e-03
-6.162790e-03 3.761869e-01 -1.844607e-01 -5.280735e-05 7.383302e-04 -1.533131e-03
9.679768e-02 -3.662217e-02 3.648291e-02 -3.982905e-04 1.485539e-04 9.677658e-05
1.053801e-03 1.546805e-01 1.373023e-01 -3.628245e-05 -5.072427e-04 5.466731e-04
7.506163e-02 8.490880e-02 -7.046692e-02 -3.056686e-04 -3.056686e-04 -1.692239e-04
-2.921799e-01 -2.850687e-01 1.669198e-01 -6.795261e-04 -6.795261e-04 1.405945e-03
4.588583e-01 -1.865895e-01 -3.580148e-02 1.939215e-03 -7.232877e-04 -4.711903e-04
3.190179e-01 -9.136675e-02 -1.968712e-01 2.139977e-04 -4.655106e-05 -1.449185e-03
-1.280576e-01 3.435911e-02 -1.092356e-01 4.863355e-04 -1.057893e-04 -2.866234e-04
4.819616e-02 9.196236e-02 -3.788244e-02 -2.037206e-04 -3.730969e-04 -9.677628e-05
1.006278e-01 7.519002e-02 -9.739619e-02 -3.542507e-04 -2.651864e-04 -2.548364e-04
-1.949657e-01 -4.256956e-01 1.074563e-01 -8.499996e-04 -1.556663e-03 1.021394e-03
2.077197e-01 -2.770494e-01 -1.941677e-01 2.595265e-04 -3.466888e-04 -1.400421e-03
-4.953669e-01 -5.904811e-02 -5.466964e-03 -2.111619e-03 -1.510248e-04 -1.582373e-04
-4.349443e-01 -2.135423e-01 7.372053e-02 -1.673231e-03 -9.136364e-04 7.463313e-04
1.605990e-01 4.695067e-01 -3.187328e-02 7.232877e-04 1.939215e-03 -4.711903e-04
-2.521379e-01 -1.100513e-01 1.979857e-01 1.697706e-04 6.330770e-05 1.199090e-03
3.172870e-02 -2.169959e-01 -1.825190e-01 -8.926603e-05 4.103513e-04 -8.697805e-04
2.281742e-01 -4.416281e-01 -2.362736e-02 1.014577e-03 -1.858053e-03 -1.582710e-04
1.510939e-01 -4.333233e-01 1.192745e-01 5.421372e-04 -1.453528e-03 1.234018e-03
2.410399e-01 4.179190e-01 7.822793e-02 9.136667e-04 1.673261e-03 7.463298e-04
6.027121e-03 3.847063e-01 1.803626e-01 5.280736e-05 7.383302e-04 1.533131e-03
3.507112e-01 1.820065e-01 -1.751086e-01 6.496738e-04 3.547490e-04 -1.533126e-03
-1.658027e-01 2.747109e-02 1.498526e-01 4.969242e-04 -1.080951e-04 5.466695e-04
-1.508353e-01 4.274472e-01 1.263096e-01 -5.204260e-04 1.395312e-03 1.184589e-03
1.439051e-02 1.848739e-01 1.635940e-01 -3.004830e-05 -4.200869e-04 6.161763e-04
-2.998840e-01 2.588219e-01 -1.750423e-01 -5.925734e-04 4.435935e-04 -1.533128e-03
4.563184e-01 1.994437e-01 1.980234e-02 1.992430e-03 7.431408e-04 1.589564e-04
-2.812548e-01 1.356977e-01 1.994410e-01 000000 000000 1.339814e-03
4.517770e-01 -1.282945e-01 -1.045701e-01 1.733116e-03 -3.770126e-04 -1.021395e-03
-2.945901e-01 1.360107e-02 -1.994410e-01 000000 000000 -1.212644e-03
1.266568e-01 1.444531e-01 1.678826e-01 -3.397673e-04 -3.397673e-04 7.029813e-04
4.785819e-01 -5.406165e-03 -8.889903e-02 1.714050e-03 -1.226032e-04 -9.895971e-04
4.637409e-01 1.657579e-01 4.768379e-02 1.913307e-03 7.136270e-04 4.648902e-04
-9.933094e-02 3.864064e-01 1.733453e-01 -1.573456e-04 7.232980e-04 1.533095e-03
-2.821711e-01 -3.126255e-01 -1.584385e-01 -7.214876e-04 -7.214876e-04 -1.492764e-03
-3.380580e-02 2.157751e-01 1.821558e-01 7.867299e-05 -3.616351e-04 7.665523e-04
5.054008e-02 1.403804e-01 1.312478e-01 -1.787493e-04 -4.792238e-04 4.068519e-04
1.997624e-01 -1.036459e-01 1.855212e-01 -3.685750e-04 2.012620e-04 8.697817e-04
8.309820e-02 1.327314e-01 1.391244e-01 -2.132522e-04 -3.905371e-04 4.783375e-04
-3.702232e-01 -2.902150e-01 1.018358e-01 -1.419842e-03 -1.062876e-03 1.021390e-03
4.925786e-02 -2.792577e-01 -1.992927e-01 -3.851780e-05 1.770683e-04 -1.199082e-03
8.909806e-02 -5.092100e-02 3.257569e-02 -3.730969e-04 2.037206e-04 9.678063e-05
1.752031e-01 -2.353258e-01 -1.994410e-01 000000 000000 -1.212653e-03
9.473215e-03 2.954184e-01 -1.994410e-01 000000 000000 -1.212644e-03
1.134662e-01 1.476421e-01 1.641148e-01 -2.523923e-04 -3.371573e-04 6.161639e-04
4.774224e-03 -3.372062e-01 1.960341e-01 1.428211e-05 -1.997022e-04 1.324834e-03
-4.361061e-02 -1.132444e-01 -8.997852e-02 1.546360e-04 4.146062e-04 -2.548369e-04
-2.766197e-01 3.311028e-01 -1.496524e-01 -7.383159e-04 9.862850e-04 -1.324382e-03
3.386376e-01 -3.318685e-01 9.519996e-02 1.254122e-03 -1.254122e-03 1.021387e-03
1.549246e-01 -4.721836e-01 2.907157e-02 7.398172e-04 -1.983532e-03 1.582450e-04
3.250887e-01 -1.083175e-02 -1.977953e-01 1.997022e-04 -1.428211e-05 -1.324834e-03
-4.463849e-01 -1.911035e-01 -7.131244e-02 -1.786216e-03 -6.662259e-04 -7.463276e-04
1.632772e-01 -4.241003e-01 1.247857e-01 5.421372e-04 -1.453528e-03 1.234018e-03
2.684125e-01 2.065681e-01 1.957350e-01 1.753217e-04 1.312434e-04 1.449184e-03
2.227729e-01 -8.832738e-02 -1.902694e-01 -3.009270e-04 1.122414e-04 -1.038612e-03
8.260616e-02 -3.162569e-01 -1.975603e-01 4.255894e-05 -1.956365e-04 -1.324847e-03
1.653747e-01 5.483565e-02 -1.556738e-01 -4.764703e-04 -1.777118e-04 -5.466581e-04
4.609674e-01 -1.269351e-01 -8.947745e-02 1.733116e-03 -3.770126e-04 -1.021395e-03
-3.352933e-01 -3.866035e-03 1.963322e-01 -1.997022e-04 -1.429688e-05 1.324834e-03
1.035626e-01 1.359488e-01 -1.526827e-01 -3.047563e-04 -4.071076e-04 -5.466755e-04
-4.906226e-01 4.164734e-02 -4.805644e-02 -2.036857e-03 1.456688e-04 -4.648933e-04
8.914721e-03 -2.914346e-01 -1.994410e-01 000000 000000 -1.339804e-03
4.457036e-01 1.649428e-02 -1.356924e-01 1.485417e-03 1.062423e-04 -1.184570e-03
1.877827e-01 -4.453017e-01 7.686961e-02 6.813892e-04 -1.826860e-03 7.632844e-04
2.487819e-01 4.229426e-01 5.643400e-02 9.786489e-04 1.792264e-03 4.648991e-04
-2.961659e-01 7.107686e-02 1.994407e-01 2.127000e-09 1.479400e-08 1.339814e-03
3.129625e-01 -2.827651e-01 -1.579885e-01 7.214876e-04 -7.214876e-04 -1.492764e-03
2.684183e-01 3.280112e-01 -1.564843e-01 6.114565e-04 8.168188e-04 -1.492753e-03
6.970877e-02 -7.155119e-02 1.882136e-03 -3.007380e-04 3.007380e-04 3.179044e-05
-5.082736e-02 2.792385e-01 -1.993399e-01 3.852810e-05 -1.770463e-04 -1.199082e-03
-1.070985e-01 4.573195e-01 1.029893e-01 -3.652726e-04 1.679167e-03 9.896100e-04
-1.891276e-01 3.544591e-01 -1.713188e-01 -4.605582e-04 8.434489e-04 -1.405941e-03
-3.616517e-02 4.373292e-01 -1.422463e-01 -9.242927e-05 1.292282e-03 -1.392737e-03
4.179645e-02 -3.947487e-01 -1.742943e-01 5.280735e-05 -7.383302e-04 -1.533131e-03
5.789457e-03 1.034090e-01 3.677101e-02 -3.033734e-05 -4.240088e-04 9.677921e-05
-1.785861e-01 -4.259365e-01 1.158970e-01 -5.421489e-04 -1.453540e-03 1.234012e-03
-1.664743e-01 -2.816228e-01 -1.975046e-01 -1.049560e-04 -1.922147e-04 -1.449177e-03
-6.463080e-02 4.949573e-01 -5.604544e-03 -1.510248e-04 2.111619e-03 -1.582373e-04
2.373251e-01 1.224491e-01 1.968192e-01 -1.425515e-04 -7.783981e-05 1.074748e-03
-5.275283e-02 2.721717e-01 -1.983583e-01 3.852810e-05 -1.770463e-04 -1.199082e-03
-4.144504e-01 1.150064e-01 1.509623e-01 -1.203868e-03 2.618863e-04 1.324412e-03
3.270948e-01 -7.580689e-02 1.961783e-01 2.139977e-04 -4.655106e-05 1.449163e-03
4.702502e-01 3.803155e-02 9.928832e-02 1.769079e-03 1.265357e-04 1.021397e-03
-1.201945e-01 -1.469471e-01 1.664906e-01 2.523923e-04 3.371573e-04 6.161639e-04
-4.260067e-01 -2.373222e-01 -6.464682e-02 -1.711268e-03 -9.344220e-04 -7.633003e-04
-4.807902e-01 -1.310253e-01 -1.434002e-02 -2.068635e-03 -4.500040e-04 -1.582492e-04
-4.536023e-01 -3.957369e-02 1.237179e-01 -1.547396e-03 -1.106827e-04 1.233999e-03
3.377645e-01 -3.340013e-01 -9.365313e-02 1.254159e-03 -1.254146e-03 -1.021392e-03
3.670647e-01 2.514298e-01 -1.369143e-01 1.037166e-03 7.764181e-04 -1.392747e-03
4.627135e-01 6.099625e-02 1.094971e-01 1.769079e-03 1.265357e-04 1.021397e-03
-4.233413e-01 -2.411138e-01 -6.598070e-02 -1.711268e-03 -9.344220e-04 -7.633003e-04
2.039306e-01 4.097590e-01 -1.210767e-01 7.137000e-04 1.307054e-03 -1.184583e-03
-3.194765e-01 2.683050e-01 -1.612008e-01 -8.168188e-04 6.114565e-04 -1.492753e-03
-9.102303e-02 4.844253e-01 4.647703e-02 -4.340630e-04 1.995387e-03 4.649041e-04
-1.340831e-01 -3.559528e-01 1.821921e-01 -2.412615e-04 -6.468463e-04 1.429890e-03
3.264677e-02 2.316320e-01 -1.883449e-01 -2.291171e-05 -3.203586e-04 -1.038624e-03
1.909112e-01 -4.609643e-01 -1.458198e-03 7.431408e-04 -1.992445e-03 -1.589560e-04
-1.278539e-01 4.518671e-01 -1.045799e-01 -3.652726e-04 1.679167e-03 -9.895923e-04
2.058779e-01 4.071943e-01 -1.227334e-01 7.137000e-04 1.307054e-03 -1.184583e-03
-1.810630e-01 -1.152985e-01 1.802933e-01 3.685608e-04 2.012542e-04 8.697836e-04
-4.149547e-01 -1.532940e-01 1.389275e-01 -1.213902e-03 -4.527631e-04 1.392719e-03
-4.611548e-01 8.812646e-02 1.034842e-01 -1.733069e-03 3.770127e-04 1.021405e-03
-3.829020e-01 6.136902e-02 -1.788947e-01 -6.746002e-04 1.467624e-04 -1.429892e-03
1.341985e-01 1.079789e-01 -1.538411e-01 -4.071076e-04 -3.047563e-04 -5.466787e-04
-1.921543e-01 -4.427562e-01 7.905962e-02 -6.662379e-04 -1.786234e-03 7.463227e-04
-1.906318e-02 1.747514e-01 1.569208e-01 3.004830e-05 -4.200869e-04 6.161657e-04
-3.776381e-01 -3.211536e-01 3.737590e-02 -1.656897e-03 -1.240334e-03 4.712058e-04
-1.383035e-01 -8.931204e-02 1.464919e-01 3.562268e-04 2.666643e-04 4.783522e-04
-4.154756e-01 2.628049e-01 5.570102e-02 -1.792264e-03 9.786489e-04 4.648991e-04
-4.286220e-01 -1.707144e-01 -1.161925e-01 -1.453540e-03 -5.421372e-04 -1.234021e-03
-2.644663e-01 1.028744e-01 -1.993523e-01 1.697774e-04 -6.333947e-05 -1.199103e-03
-4.941410e-01 -2.961903e-02 3.640998e-02 -2.064440e-03 -1.476505e-04 4.711673e-04
6.595713e-02 4.710804e-01 -9.439041e-02 1.265381e-04 1.769113e-03 -1.021397e-03
-2.207614e-01 -2.703270e-01 -1.934150e-01 -2.595265e-04 -3.466888e-04 -1.400446e-03
8.834678e-02 -2.590553e-01 1.978192e-01 -5.676084e-05 1.521776e-04 1.074758e-03
3.831958e-01 -2.218121e-01 -1.386823e-01 1.137108e-03 -6.209088e-04 -1.392748e-03
-1.978371e-01 -1.980835e-01 1.987807e-01 1.281357e-04 1.281357e-04 1.199107e-03
1.001369e-01 -4.300717e-01 1.397029e-01 2.753969e-04 -1.265982e-03 1.392752e-03
4.589306e-01 1.557443e-01 7.285048e-02 1.786248e-03 6.662379e-04 7.463242e-04
-3.702597e-02 -4.210065e-01 -1.570778e-01 -7.279284e-05 -1.017736e-03 -1.492766e-03
8.928990e-02 -7.542647e-02 -7.957493e-02 -3.807849e-04 2.850495e-04 -1.862050e-04
1.765069e-01 -2.386034e-01 1.994410e-01 000000 000000 1.212628e-03
-9.741435e-03 -4.504507e-01 -1.303454e-01 -1.062423e-04 -1.485417e-03 -1.184590e-03
-1.503773e-01 -1.689317e-01 -1.859007e-01 2.969481e-04 2.969417e-04 -8.697722e-04
2.829902e-01 -3.595116e-02 -1.994410e-01 000000 000000 -1.212644e-03
-8.786667e-02 1.485644e-01 -1.541771e-01 2.437197e-04 -4.463382e-04 -5.466799e-04
-2.848067e-01 -2.820936e-01 -1.719214e-01 -6.795261e-04 -6.795261e-04 -1.405945e-03
-1.583879e-02 -9.970709e-02 -1.404938e-02 9.039428e-05 4.155901e-04 -3.179010e-05
2.294148e-02 -4.253347e-01 1.542532e-01 8.789524e-05 -1.228876e-03 1.324402e-03
-3.526866e-01 -7.779409e-02 -1.895626e-01 -4.582842e-04 -9.967792e-05 -1.516569e-03
2.567174e-01 1.519424e-01 1.994410e-01 000000 000000 1.339797e-03
4.656980e-01 4.667957e-02 1.061015e-01 1.714017e-03 1.226008e-04 9.895971e-04
-3.046434e-01 -1.054351e-01 -1.982112e-01 -1.875627e-04 -6.997254e-05 -1.324839e-03
-1.271734e-01 -8.922275e-02 -1.381537e-01 3.562268e-04 2.666643e-04 -4.783491e-04
4.084748e-02 -4.594710e-01 1.162444e-01 1.106827e-04 -1.547396e-03 1.233999e-03
6.014914e-03 4.200370e-01 -1.592509e-01 6.855795e-05 9.585485e-04 -1.405958e-03
2.476653e-01 -4.185048e-01 6.880402e-02 9.344388e-04 -1.711313e-03 7.632703e-04
-4.025590e-01 3.063463e-02 1.699665e-01 -9.585485e-04 6.855795e-05 1.405953e-03
-4.099857e-01 -1.351215e-01 -1.491662e-01 -1.213902e-03 -4.527631e-04 -1.392721e-03
3.282845e-01 -3.478686e-01 8.826629e-02 1.254122e-03 -1.254122e-03 1.021387e-03
-1.476999e-01 4.437431e-01 -1.069016e-01 -6.005253e-04 1.610086e-03 -9.895695e-04
-3.676956e-01 1.347878e-01 -1.767611e-01 -6.935448e-04 2.586802e-04 -1.533121e-03
2.576200e-01 2.698955e-01 1.857442e-01 4.881713e-04 4.881713e-04 1.429924e-03
1.085525e-02 -4.976519e-01 -2.097069e-02 1.517104e-04 -2.121098e-03 -1.589659e-04
-2.694578e-01 -1.025641e-01 1.994407e-01 4.210750e-09 -1.434050e-08 1.212632e-03
-4.393860e-02 9.722912e-02 -4.948941e-02 1.485539e-04 -3.982905e-04 -9.677658e-05
6.531503e-02 -7.580998e-02 -1.145865e-03 -2.548776e-04 3.404727e-04 -3.178972e-05
-4.362330e-01 1.609008e-01 1.111096e-01 -1.610055e-03 6.005266e-04 9.896037e-04
1.180545e-01 -4.393494e-01 1.248071e-01 3.297578e-04 -1.515904e-03 1.234022e-03
2.889340e-01 3.970365e-02 -1.994410e-01 000000 000000 -1.212654e-03
4.222519e-01 1.625034e-01 1.273028e-01 1.395312e-03 5.204260e-04 1.184589e-03
-3.887005e-01 -2.423889e-01 1.211417e-01 -1.361589e-03 -7.434740e-04 1.234017e-03
5.254789e-02 -4.639502e-01 -1.084022e-01 1.225903e-04 -1.714050e-03 -9.895722e-04
8.920032e-02 -5.710201e-02 -4.598077e-02 -3.973726e-04 2.169659e-04 -1.030765e-04
-2.156253e-01 4.477832e-01 -3.046648e-02 -9.919087e-04 1.816539e-03 -4.711887e-04
1.035965e-02 3.899580e-01 1.776842e-01 5.280736e-05 7.383302e-04 1.533131e-03
3.310622e-01 3.256307e-01 -1.121613e-01 1.215120e-03 1.215120e-03 -9.896044e-04
1.701861e-01 -2.235974e-01 -1.989362e-01 -1.085961e-04 1.450644e-04 -1.199100e-03
7.160564e-02 -1.158750e-01 -1.146868e-01 -2.153358e-04 3.943655e-04 -3.574071e-04
-2.828642e-01 1.330947e-03 -1.991253e-01 1.620064e-04 -1.158653e-05 -1.074758e-03
-1.021641e-01 4.131639e-01 -1.546713e-01 -2.618762e-04 1.203858e-03 -1.324375e-03
-4.003160e-01 -2.291793e-01 -1.162842e-01 -1.361589e-03 -7.434857e-04 -1.234040e-03
4.797195e-01 -8.485097e-03 -8.643921e-02 1.901553e-03 -1.360110e-04 -7.462906e-04
-4.167170e-03 -4.656829e-01 1.113945e-01 -1.226008e-04 -1.714017e-03 9.896088e-04
-3.699214e-01 -1.980991e-01 1.591039e-01 -8.955219e-04 -4.889985e-04 1.492746e-03
4.052615e-01 -2.765364e-01 -5.768897e-02 1.634763e-03 -1.223766e-03 -4.649084e-04
1.465975e-01 1.401283e-01 1.747768e-01 -2.617087e-04 -2.617087e-04 7.665622e-04
9.901974e-02 3.448776e-02 4.235086e-02 -3.982905e-04 -1.485539e-04 9.678234e-05
4.159986e-01 9.688321e-02 1.531385e-01 1.203858e-03 2.618863e-04 1.324403e-03
4.470970e-01 -2.148219e-01 -3.480303e-02 1.792264e-03 -9.786489e-04 -4.648914e-04
-3.072818e-01 -3.293519e-01 -1.301312e-01 -1.053028e-03 -1.053028e-03 -1.184575e-03
-1.390427e-01 4.196882e-02 1.259064e-01 4.792238e-04 -1.787493e-04 4.068519e-04
2.128086e-01 -1.099190e-01 1.902268e-01 -2.818875e-04 1.539238e-04 1.038602e-03
-2.595461e-01 -2.236606e-01 1.952597e-01 -1.753195e-04 -1.312434e-04 1.449158e-03
1.108076e-01 -3.868998e-02 8.126149e-02 -4.456532e-04 1.662156e-04 1.861961e-04
-4.126661e-01 -2.691675e-01 -5.104867e-02 -1.656897e-03 -1.240334e-03 -4.711815e-04
2.666025e-01 2.454826e-01 -1.892731e-01 3.316140e-04 3.316140e-04 -1.516530e-03
-1.221517e-01 3.326364e-01 -1.916691e-01 -1.513424e-04 4.057588e-04 -1.400449e-03
7.914645e-02 3.302243e-01 1.956089e-01 4.655106e-05 2.139977e-04 1.449163e-03
-3.048003e-01 -8.529420e-03 1.994409e-01 000000 -1.494600e-08 1.212644e-03
4.706627e-01 1.629328e-01 -1.069715e-02 1.992430e-03 7.431408e-04 -1.589674e-04
-4.705105e-03 4.573027e-01 -1.222050e-01 -1.106827e-04 1.547396e-03 -1.234017e-03
-1.459197e-01 -4.174728e-01 -1.391302e-01 -4.527631e-04 -1.213892e-03 -1.392709e-03
-4.277501e-01 2.345006e-01 -6.419236e-02 -1.711268e-03 9.344220e-04 -7.632964e-04
-4.671126e-01 -1.747328e-01 2.877192e-05 -1.992445e-03 -7.431408e-04 1.589574e-04
-4.143237e-01 2.457571e-01 8.051369e-02 -1.673261e-03 9.136667e-04 7.463298e-04
7.108947e-02 8.008365e-02 -5.142892e-02 -3.005757e-04 -3.005757e-04 -9.677626e-05
-3.212776e-01 -1.272549e-01 -1.944086e-01 -4.057818e-04 -1.513510e-04 -1.400449e-03
1.424125e-01 2.401235e-01 1.986362e-01 -8.684438e-05 -1.590458e-04 1.199098e-03
-4.908395e-01 -2.561703e-02 5.212929e-02 -2.036857e-03 -1.456688e-04 4.648933e-04
3.049748e-01 2.630926e-01 1.712711e-01 8.168188e-04 6.114565e-04 1.492753e-03
-9.892323e-02 -4.413487e-01 1.274636e-01 -3.165534e-04 -1.455176e-03 1.184581e-03
-2.524097e-01 -2.971674e-01 1.779476e-01 -4.137300e-04 -5.526776e-04 1.429911e-03
-1.599840e-01 4.462948e-01 9.529555e-02 -6.198124e-04 1.661777e-03 1.021393e-03
-5.290124e-02 -3.035585e-01 -1.994410e-01 000000 000000 -1.339796e-03
-2.447859e-01 -4.346851e-02 1.930024e-01 3.138344e-04 6.826816e-05 1.038607e-03
1.366135e-01 -1.968782e-01 1.902337e-01 -1.709545e-04 2.283682e-04 9.225059e-04
3.604491e-01 5.980987e-03 -1.899353e-01 4.677759e-04 3.345347e-05 -1.516548e-03
3.139315e-01 -3.826639e-01 -3.871406e-02 1.223766e-03 -1.634749e-03 -4.649089e-04
-2.258245e-01 -3.667349e-01 -1.503329e-01 -6.209088e-04 -1.137118e-03 -1.392757e-03
2.690399e-01 -3.385000e-01 1.483692e-01 7.764181e-04 -1.037176e-03 1.392723e-03
6.610387e-02 4.931540e-01 2.826297e-02 1.510248e-04 2.111619e-03 1.582373e-04
-1.315747e-01 -3.081906e-01 -1.963285e-01 -7.653435e-05 -2.051936e-04 -1.449168e-03
-3.635507e-01 -3.396340e-01 -2.005862e-02 -1.503660e-03 -1.503675e-03 -1.589750e-04
-4.315520e-01 -1.596112e-01 1.176190e-01 -1.453540e-03 -5.421489e-04 1.234011e-03
-4.345769e-03 -2.930298e-01 -1.994410e-01 000000 000000 -1.212644e-03
2.949924e-01 -2.237847e-01 1.867486e-01 3.754330e-04 -2.810461e-04 1.516561e-03
-4.913373e-01 4.032688e-02 4.533825e-02 -2.036857e-03 1.456834e-04 4.649071e-04
4.234839e-01 -2.239640e-01 -8.665603e-02 1.673217e-03 -9.136503e-04 -7.463122e-04
2.449405e-01 3.244726e-02 1.924456e-01 -3.203586e-04 -2.291611e-05 1.038608e-03
4.890471e-01 -9.545233e-02 -7.561138e-03 2.077921e-03 -4.520161e-04 -1.589670e-04
2.178740e-01 -4.485938e-01 7.876870e-03 1.014577e-03 -1.858053e-03 1.582465e-04
-3.238372e-01 -8.477421e-02 1.963713e-01 -2.139977e-04 -4.655106e-05 1.449185e-03
9.098524e-02 2.168173e-01 1.888311e-01 -9.969081e-05 -2.672841e-04 9.224949e-04
4.264310e-01 -2.058713e-01 9.726011e-02 1.556650e-03 -8.499996e-04 1.021404e-03
3.761564e-01 5.349279e-02 1.828453e-01 7.383302e-04 5.280736e-05 1.533111e-03
3.682700e-01 2.856550e-01 -1.092963e-01 1.375675e-03 1.029818e-03 -9.896002e-04
2.542405e-01 -2.087759e-01 -1.972496e-01 1.753217e-04 -1.312434e-04 -1.449184e-03
-3.746350e-01 3.122717e-01 6.614156e-02 -1.526187e-03 1.142494e-03 7.463137e-04
2.817416e-01 -1.281157e-01 -1.994410e-01 000000 000000 -1.339821e-03
2.668034e-01 -2.200178e-01 -1.944251e-01 3.466888e-04 -2.595265e-04 -1.400446e-03
2.380451e-01 -3.784170e-01 -1.351051e-01 7.137000e-04 -1.307042e-03 -1.184601e-03
1.121884e-02 -1.034661e-01 3.872196e-02 -3.230446e-05 4.515922e-04 1.030671e-04
-3.200947e-01 2.394542e-01 1.726804e-01 -7.693174e-04 5.759020e-04 1.405947e-03
2.757004e-01 -4.105267e-01 -4.137475e-02 1.240334e-03 -1.656897e-03 -4.711815e-04
3.947220e-01 -2.701816e-01 -8.862613e-02 1.419865e-03 -1.062902e-03 -1.021390e-03
2.434680e-02 -2.072002e-01 -1.775111e-01 -2.640043e-05 3.691651e-04 -7.665535e-04
-2.414695e-01 -4.363197e-01 7.125019e-04 -1.019138e-03 -1.866400e-03 1.589575e-04
-1.611032e-01 3.474442e-01 -1.813298e-01 -3.547490e-04 6.496738e-04 -1.533126e-03
4.211666e-01 -2.032121e-01 -1.074961e-01 1.508232e-03 -8.235461e-04 -9.896112e-04
4.020527e-01 -1.961321e-01 1.342786e-01 1.307042e-03 -7.137000e-04 1.184585e-03
2.108968e-01 4.521796e-01 -1.050733e-02 1.014577e-03 1.858068e-03 -1.582475e-04
-3.351600e-01 -2.429679e-01 1.629975e-01 -8.168188e-04 -6.114565e-04 1.492753e-03
-1.600667e-01 -4.002537e-01 -1.495393e-01 -4.527631e-04 -1.213892e-03 -1.392709e-03
2.405727e-01 1.925948e-01 1.994410e-01 000000 000000 1.339826e-03
1.505774e-01 7.122958e-02 -1.484035e-01 -4.463382e-04 -2.437197e-04 -5.466799e-04
-2.402001e-02 -9.705529e-02 2.645978e-03 9.039428e-05 4.155901e-04 3.178515e-05
-9.948772e-02 -4.271119e-01 1.425218e-01 -2.753969e-04 -1.265982e-03 1.392748e-03
6.863457e-03 -1.301662e-01 1.055705e-01 -3.551765e-05 4.964446e-04 2.866132e-04
-5.230159e-03 -4.356511e-01 1.458563e-01 -9.242927e-05 -1.292292e-03 1.392748e-03
1.704627e-01 -4.127539e-01 1.349937e-01 5.204260e-04 -1.395312e-03 1.184589e-03
-7.748371e-02 -4.035291e-01 1.651417e-01 -2.168883e-04 -9.970160e-04 1.492764e-03
-2.910900e-01 1.867605e-01 1.945644e-01 -3.800938e-04 2.075445e-04 1.400440e-03
2.182798e-02 4.607591e-01 -1.163351e-01 1.106827e-04 1.547396e-03 -1.233997e-03
-4.536213e-01 -1.507285e-01 8.899194e-02 -1.661806e-03 -6.198312e-04 1.021393e-03
-1.776773e-01 1.906908e-01 -1.958364e-01 1.148472e-04 -1.148494e-04 -1.074761e-03
1.395048e-02 2.113059e-01 1.791303e-01 -2.996070e-05 -4.188791e-04 8.697959e-04
8.696359e-02 -2.149287e-01 1.878493e-01 -9.969081e-05 2.672841e-04 9.225036e-04
3.468765e-01 -1.180650e-01 1.879848e-01 4.394061e-04 -1.638929e-04 1.516569e-03
2.124216e-01 -4.342172e-01 -7.672286e-02 9.344220e-04 -1.711282e-03 -7.632577e-04
1.609148e-01 -3.668249e-01 1.725560e-01 3.358270e-04 -9.004051e-04 1.405947e-03
1.521441e-02 -4.116697e-01 -1.645070e-01 7.279284e-05 -1.017727e-03 -1.492759e-03
-1.199206e-01 -4.836899e-01 -8.013444e-03 -4.520161e-04 -2.077921e-03 -1.589670e-04
-4.231632e-01 1.622043e-01 -1.263608e-01 -1.395312e-03 5.204260e-04 -1.184589e-03
-4.486402e-01 5.218792e-02 1.288087e-01 -1.485417e-03 1.062423e-04 1.184570e-03
3.117576e-01 -3.131940e-01 -1.393507e-01 9.161193e-04 -9.161193e-04 -1.392720e-03
-3.056239e-01 -2.693728e-01 1.680082e-01 -6.795261e-04 -6.795261e-04 1.405945e-03
2.755740e-01 2.108359e-01 -1.939554e-01 3.466888e-04 2.595265e-04 -1.400421e-03
-2.435198e-01 -4.078130e-01 9.430389e-02 -8.235431e-04 -1.508203e-03 9.896096e-04
-6.879222e-02 -4.092815e-01 -1.625625e-01 -2.042763e-04 -9.390326e-04 -1.405950e-03
-1.262969e-01 -4.072038e-01 1.544595e-01 -4.305403e-04 -1.154339e-03 1.324379e-03
1.001628e-01 -1.220325e-01 -1.404240e-01 -2.666643e-04 3.562268e-04 -4.783491e-04
1.357442e-01 -6.157489e-02 1.306349e-01 -4.209962e-04 1.570264e-04 3.574132e-04
3.077835e-01 -7.124358e-02 -1.991765e-01 1.956365e-04 -4.255894e-05 -1.324826e-03
9.572787e-02 -4.186406e-01 1.509654e-01 2.618863e-04 -1.203868e-03 1.324414e-03
1.827340e-01 3.517840e-01 1.744857e-01 3.547490e-04 6.496738e-04 1.533126e-03
2.730433e-02 1.492846e-01 -1.343725e-01 -1.087196e-04 -4.997898e-04 -4.068539e-04
3.546816e-01 3.496646e-01 -9.073021e-03 1.503675e-03 1.503675e-03 -1.589758e-04
4.769245e-01 9.603377e-03 -9.124982e-02 1.769113e-03 1.265381e-04 -1.021387e-03
3.590262e-01 -1.885645e-01 -1.687634e-01 8.434489e-04 -4.605582e-04 -1.405960e-03
9.019530e-02 5.167010e-02 3.838284e-02 -3.730969e-04 -2.037206e-04 9.677628e-05
-3.045907e-01 3.881704e-01 -4.393912e-02 -1.223766e-03 1.634749e-03 -4.649089e-04
-4.893528e-01 7.327616e-02 4.189740e-02 -2.022417e-03 4.399498e-04 4.712020e-04
4.462046e-01 -1.639296e-01 -9.304775e-02 1.661809e-03 -6.198244e-04 -1.021405e-03
3.538244e-01 -1.641439e-01 1.779224e-01 6.496738e-04 -3.547425e-04 1.533106e-03
-2.100768e-01 -2.441772e-01 1.983492e-01 -1.199822e-04 -1.602777e-04 1.324834e-03
1.623831e-01 -9.050206e-02 -1.639110e-01 -4.217202e-04 2.302833e-04 -7.029688e-04
-4.652735e-02 -4.957978e-01 1.166739e-02 -1.510248e-04 -2.111619e-03 1.582373e-04
3.759177e-01 2.995283e-01 8.302674e-02 1.526187e-03 1.142494e-03 7.463208e-04
4.529517e-02 -3.658686e-01 -1.873965e-01 3.345347e-05 -4.677759e-04 -1.516548e-03
-3.234914e-01 -3.418206e-01 -1.015777e-01 -1.215107e-03 -1.215120e-03 -9.895995e-04
-2.278277e-01 2.005763e-02 -1.868938e-01 2.845439e-04 -2.035226e-05 -9.225029e-04
-4.444977e-01 1.084217e-01 1.210570e-01 -1.455164e-03 3.165534e-04 1.184579e-03
-4.113814e-01 -2.427180e-01 8.953281e-02 -1.556693e-03 -8.500031e-04 1.021401e-03
1.121789e-02 -1.039882e-01 -4.100953e-02 -3.032277e-05 4.240088e-04 -9.677147e-05
-2.806307e-01 -1.560928e-01 1.983877e-01 -1.757007e-04 -9.594065e-05 1.324820e-03
1.159418e-01 8.483084e-03 -7.847618e-02 -4.744333e-04 -3.391989e-05 -1.861945e-04
-1.340732e-01 -3.637538e-01 1.786648e-01 -2.586737e-04 -6.935448e-04 1.533094e-03
9.477483e-02 -4.876576e-01 -2.765265e-02 4.500040e-04 -2.068635e-03 -1.582492e-04
3.742621e-01 -2.990992e-01 8.697566e-02 1.419837e-03 -1.062881e-03 1.021371e-03
1.784551e-01 4.525437e-02 1.626145e-01 -4.695163e-04 -1.021423e-04 7.029765e-04
-3.105031e-01 -1.707133e-01 -1.916735e-01 -3.801154e-04 -2.075563e-04 -1.400440e-03
-3.236059e-01 8.190909e-02 -1.964973e-01 -2.139736e-04 4.654584e-05 -1.449185e-03
-2.920440e-01 3.337447e-01 -1.388001e-01 -9.161193e-04 9.161193e-04 -1.392720e-03
-2.437655e-01 2.347709e-02 -1.918852e-01 3.203586e-04 -2.291171e-05 -1.038624e-03
3.391101e-01 2.703099e-01 -1.472068e-01 9.862850e-04 7.383159e-04 -1.324382e-03
2.079131e-02 -1.148646e-01 7.951663e-02 -1.011179e-04 4.647832e-04 1.862011e-04
-1.288066e-01 3.088343e-01 -1.963835e-01 -6.996694e-05 1.875899e-04 -1.324839e-03
-3.549205e-01 1.170798e-01 -1.855276e-01 -6.468252e-04 2.412392e-04 -1.429894e-03
-1.276373e-01 -2.298262e-02 -1.043232e-01 4.863485e-04 1.057893e-04 -2.866175e-04
3.585946e-02 -9.597196e-02 3.191373e-02 -1.485539e-04 3.982905e-04 9.678234e-05
-4.761193e-01 -9.548493e-02 -7.000669e-02 -1.905212e-03 -4.144608e-04 -7.633150e-04
-2.314686e-01 -2.091174e-01 1.994410e-01 000000 000000 1.339819e-03
-1.140416e-01 -1.892766e-01 -1.834833e-01 2.012620e-04 3.685750e-04 -8.697836e-04
-4.816341e-01 9.194072e-02 5.760032e-02 -1.995387e-03 4.340630e-04 4.648878e-04
-3.202108e-01 -3.414359e-01 1.060783e-01 -1.215084e-03 -1.215097e-03 9.895987e-04
2.499258e-01 3.419326e-02 1.940218e-01 -3.203586e-04 -2.291611e-05 1.038608e-03
-3.688185e-01 2.885793e-01 -1.054900e-01 -1.375675e-03 1.029831e-03 -9.895859e-04
1.666937e-01 -3.803939e-01 1.624858e-01 3.565637e-04 -9.560058e-04 1.492768e-03
2.667954e-01 1.149169e-01 -1.994410e-01 000000 000000 -1.212632e-03
-1.993703e-01 1.693464e-01 1.959292e-01 1.300226e-04 -9.733263e-05 1.074746e-03
-8.553137e-02 4.217984e-01 1.501113e-01 -2.618863e-04 1.203858e-03 1.324397e-03
-3.222867e-01 2.723517e-02 -1.980409e-01 -1.997022e-04 1.428211e-05 -1.324834e-03
1.530709e-01 -4.745965e-01 7.493427e-03 7.398172e-04 -1.983532e-03 1.582450e-04
-4.122097e-01 2.810013e-01 4.512673e-03 -1.702363e-03 1.274373e-03 1.589327e-04
-1.955675e-01 3.403038e-01 -1.763810e-01 -3.547490e-04 6.496738e-04 -1.533126e-03
-3.640376e-01 -2.971290e-01 1.032397e-01 -1.419842e-03 -1.062876e-03 1.021390e-03
2.183048e-01 -7.094325e-02 -1.870962e-01 -2.672841e-04 9.969081e-05 -9.225036e-04
-2.616202e-01 2.310405e-01 -1.935206e-01 -3.062221e-04 3.062221e-04 -1.400426e-03
3.072845e-01 -1.056770e-01 1.978245e-01 2.051958e-04 -7.653435e-05 1.449197e-03
1.660198e-02 1.005422e-01 2.713796e-02 -9.242125e-05 -4.248606e-04 3.249934e-05
4.478697e-02 -4.765175e-01 -8.759586e-02 1.265381e-04 -1.769113e-03 -1.021387e-03
-1.790573e-01 3.315203e-01 1.839233e-01 -3.308647e-04 6.059325e-04 1.429903e-03
1.827918e-01 -3.030264e-01 -1.919129e-01 2.075445e-04 -3.800938e-04 -1.400440e-03
2.907825e-01 -3.822473e-01 -8.347184e-02 1.142473e-03 -1.526159e-03 -7.462863e-04
4.987305e-01 1.563640e-02 2.016230e-03 2.121098e-03 1.517104e-04 1.589477e-04
2.387429e-01 4.361915e-01 1.970206e-02 1.014577e-03 1.858068e-03 1.582549e-04
8.564539e-03 4.496395e-01 -1.314681e-01 1.062423e-04 1.485417e-03 -1.184590e-03
-2.701248e-01 -3.563846e-01 1.338874e-01 -8.924493e-04 -1.192164e-03 1.184569e-03
2.834816e-01 -3.355874e-01 1.424873e-01 7.764181e-04 -1.037176e-03 1.392723e-03
-3.822601e-01 1.590895e-01 -1.631070e-01 -9.559974e-04 3.565721e-04 -1.492762e-03
-1.691252e-01 -1.515165e-01 -1.862908e-01 2.017164e-04 2.017120e-04 -9.224974e-04
-3.470291e-01 -6.096674e-02 1.923781e-01 -4.231923e-04 -9.205733e-05 1.400447e-03
-1.757376e-01 2.217438e-01 -1.992148e-01 1.085939e-04 -1.450644e-04 -1.199076e-03
2.698476e-01 5.903000e-02 1.982170e-01 -1.770683e-04 -3.851780e-05 1.199100e-03
4.403020e-01 7.563908e-02 -1.349715e-01 1.455164e-03 3.165534e-04 -1.184579e-03
-3.125800e-01 -8.460213e-02 -1.980391e-01 -1.956407e-04 -4.254476e-05 -1.324847e-03
8.639097e-02 -1.038914e-01 1.133335e-01 -2.692749e-04 3.597071e-04 3.574113e-04
4.481741e-01 -2.188586e-01 6.491698e-03 1.866400e-03 -1.019138e-03 1.589575e-04
2.755889e-01 4.024466e-01 6.542376e-02 1.168483e-03 1.560899e-03 7.632965e-04
1.010808e-01 -7.515387e-02 9.798796e-02 -3.542575e-04 2.651916e-04 2.548364e-04
-2.416420e-01 3.203570e-01 1.716407e-01 -5.759020e-04 7.693174e-04 1.405935e-03
-1.010192e-01 -2.280364e-01 1.931661e-01 9.969081e-05 2.672841e-04 9.224949e-04
-3.899778e-01 4.554830e-02 1.764627e-01 -6.886162e-04 4.924709e-05 1.429881e-03
-4.066177e-01 -2.657196e-01 -7.200250e-02 -1.560871e-03 -1.168462e-03 -7.632685e-04
1.610481e-01 -5.579450e-02 -1.522145e-01 -4.764703e-04 1.777118e-04 -5.466686e-04
-1.002248e-03 -2.925299e-01 -1.994410e-01 000000 000000 -1.212644e-03
-4.148531e-02 -1.838628e-01 -1.656786e-01 1.021423e-04 4.695163e-04 -7.029765e-04
4.326222e-02 4.631051e-01 -1.110158e-01 1.226032e-04 1.714050e-03 -9.895971e-04
-3.758325e-01 -2.715299e-01 -1.132565e-01 -1.241920e-03 -9.296902e-04 -1.234018e-03
7.529870e-02 -9.414631e-02 8.849877e-02 -2.651916e-04 3.542575e-04 2.548387e-04
2.871399e-01 2.226476e-01 -1.889032e-01 3.754286e-04 2.810461e-04 -1.516549e-03
-4.168602e-01 -2.729771e-01 1.903999e-02 -1.694762e-03 -1.268680e-03 1.582727e-04
-2.638425e-01 -2.433196e-02 -1.965058e-01 1.619883e-04 1.158523e-05 -1.074753e-03
-2.482125e-01 -4.087064e-01 8.903706e-02 -8.499996e-04 -1.556663e-03 1.021394e-03
2.149283e-01 -3.733417e-01 -1.497967e-01 5.904413e-04 -1.081317e-03 -1.324371e-03
2.974123e-01 -1.119007e-01 1.988936e-01 1.875899e-04 -6.996694e-05 1.324847e-03
3.292319e-01 2.294316e-01 1.717860e-01 7.693174e-04 5.759020e-04 1.405935e-03
3.417757e-01 5.801376e-02 -1.941597e-01 4.231683e-04 9.205210e-05 -1.400438e-03
1.657745e-01 4.683285e-01 -2.666961e-02 7.398172e-04 1.983532e-03 -1.582574e-04
-7.752383e-02 -6.487454e-02 1.596968e-02 3.480739e-04 2.605710e-04 3.249959e-05
-1.556108e-01 3.123699e-03 1.383029e-01 4.438374e-04 -3.173825e-05 4.783280e-04
-3.347067e-01 3.604971e-01 5.139519e-02 -1.443953e-03 1.443953e-03 4.649089e-04
2.721527e-01 1.826139e-01 -1.974519e-01 1.753217e-04 1.312434e-04 -1.449194e-03
3.983719e-01 1.114990e-01 1.636439e-01 9.970076e-04 2.168883e-04 1.492751e-03
9.970318e-02 -2.482405e-01 1.968876e-01 -6.332825e-05 1.697835e-04 1.199097e-03
1.832007e-01 -4.623582e-01 -2.003498e-02 7.398172e-04 -1.983532e-03 -1.582464e-04
4.515291e-02 2.539658e-01 -1.954260e-01 -3.452567e-05 -1.587071e-04 -1.074745e-03
-2.975414e-01 -5.451210e-02 1.994406e-01 -2.127000e-09 1.479400e-08 1.212647e-03
1.773959e-01 -1.784464e-01 -1.939878e-01 -2.271039e-04 2.271083e-04 -1.038623e-03
3.445753e-01 3.554927e-01 3.628750e-02 1.463507e-03 1.463507e-03 4.712049e-04
-2.576744e-01 1.877335e-01 1.987398e-01 -1.602799e-04 1.199822e-04 1.324845e-03
1.146266e-01 1.325851e-01 -1.563456e-01 -3.047563e-04 -4.071076e-04 -5.466755e-04
4.186492e-01 -2.104636e-01 -1.052983e-01 1.508232e-03 -8.235461e-04 -9.896112e-04
-2.662522e-01 -2.636371e-01 -1.849338e-01 -4.881713e-04 -4.881649e-04 -1.429895e-03
2.598306e-01 -4.209037e-01 4.103552e-02 9.919087e-04 -1.816539e-03 4.711796e-04
2.447093e-01 2.790710e-01 -1.867158e-01 3.062221e-04 3.062221e-04 -1.400409e-03
1.105113e-01 1.197783e-01 -1.451885e-01 -3.146377e-04 -3.146377e-04 -4.783323e-04
3.070671e-01 -1.205690e-01 1.970688e-01 1.875899e-04 -6.996694e-05 1.324847e-03
-3.053610e-01 2.847179e-02 1.994410e-01 000000 000000 1.339804e-03
1.332399e-01 -2.254114e-01 -1.960205e-01 -7.783981e-05 1.425537e-04 -1.074775e-03
2.381503e-01 -4.196799e-01 -7.781796e-02 9.136503e-04 -1.673231e-03 -7.462997e-04
1.880433e-01 3.468178e-01 1.753616e-01 3.547490e-04 6.496738e-04 1.533126e-03
4.776738e-01 1.447011e-01 -8.052227e-03 1.992430e-03 7.431408e-04 -1.589674e-04
-2.199147e-01 4.324826e-01 -7.143825e-02 -9.344220e-04 1.711268e-03 -7.633003e-04
-3.560853e-01 -3.429738e-01 -3.942080e-02 -1.463507e-03 -1.463507e-03 -4.712049e-04
4.459704e-01 -8.790377e-02 1.247309e-01 1.515904e-03 -3.297578e-04 1.233998e-03
-2.538828e-01 -2.515806e-01 1.907211e-01 -3.062265e-04 -3.062221e-04 1.400437e-03
4.487198e-01 1.595599e-01 -9.160708e-02 1.661809e-03 6.198244e-04 -1.021379e-03
9.847172e-02 -2.677354e-02 2.899611e-02 -4.248606e-04 9.242125e-05 3.249934e-05
-2.298234e-01 3.283874e-01 1.720877e-01 -5.759020e-04 7.693174e-04 1.405935e-03
2.814554e-01 -2.376941e-01 1.875221e-01 3.466888e-04 -2.595265e-04 1.400436e-03
4.036306e-01 -1.667797e-01 1.444136e-01 1.154339e-03 -4.305403e-04 1.324390e-03
-1.305369e-01 2.954575e-01 1.981862e-01 -7.653435e-05 2.051936e-04 1.449168e-03
-3.782458e-01 3.128389e-01 5.712534e-02 -1.634749e-03 1.223766e-03 4.649089e-04
-3.294527e-01 -4.159648e-02 -1.968057e-01 -1.996777e-04 -1.429513e-05 -1.324827e-03
4.679733e-03 4.980877e-01 -2.104979e-02 1.510248e-04 2.111619e-03 -1.582554e-04
3.179841e-01 -3.710089e-01 6.481200e-02 1.168483e-03 -1.560899e-03 7.632894e-04
-2.216068e-01 7.816966e-02 1.888336e-01 2.672782e-04 -9.970380e-05 9.224949e-04
-8.092814e-02 1.881187e-01 1.756426e-01 1.467555e-04 -3.934709e-04 8.697880e-04
-3.982669e-02 -1.207895e-01 9.995775e-02 1.739381e-04 4.663374e-04 2.866291e-04
-4.545164e-01 -1.272956e-01 1.002907e-01 -1.733072e-03 -3.769982e-04 1.021380e-03
3.686235e-01 2.602453e-01 1.290132e-01 1.192164e-03 8.924493e-04 1.184582e-03
3.725016e-01 3.273202e-01 -3.705200e-02 1.463507e-03 1.463507e-03 -4.712049e-04
4.747703e-02 -9.644090e-02 -5.363421e-02 -2.169659e-04 3.973726e-04 -1.030721e-04
-9.614446e-02 3.087249e-01 1.981240e-01 -6.996694e-05 1.875899e-04 1.324854e-03
-2.671730e-01 2.778059e-01 1.797823e-01 -4.881649e-04 4.881713e-04 1.429915e-03
2.936089e-02 2.141176e-01 -1.810151e-01 -2.996070e-05 -4.188791e-04 -8.697848e-04
4.587013e-01 -8.944427e-02 1.071610e-01 1.679134e-03 -3.652656e-04 9.895994e-04
3.271557e-01 1.649415e-04 -1.975988e-01 2.184443e-04 1.562321e-05 -1.449170e-03
-4.018045e-01 1.761055e-01 1.429734e-01 -1.154339e-03 4.305403e-04 1.324379e-03
-1.375170e-01 -1.535497e-01 1.762588e-01 2.969482e-04 2.969417e-04 8.697823e-04
-4.055365e-01 2.313488e-01 1.079024e-01 -1.508203e-03 8.235302e-04 9.895765e-04
-6.882653e-02 -4.943779e-01 -9.332122e-03 -1.517104e-04 -2.121098e-03 -1.589477e-04
1.697415e-01 2.041484e-01 -1.965431e-01 -1.085939e-04 -1.450644e-04 -1.199084e-03
3.763574e-01 2.609402e-01 1.207063e-01 1.192164e-03 8.924493e-04 1.184582e-03
3.292282e-01 -5.564076e-02 -1.965110e-01 1.956365e-04 -4.255894e-05 -1.324826e-03
-2.730518e-01 -2.881110e-01 1.742571e-01 -5.234108e-04 -5.234108e-04 1.533126e-03
2.060954e-01 -9.909194e-02 -1.868002e-01 -2.503724e-04 1.367169e-04 -9.224883e-04
3.638810e-02 -9.368975e-02 1.008545e-02 -1.486401e-04 3.984949e-04 3.178770e-05
2.057349e-02 1.593088e-01 -1.428919e-01 -3.627229e-05 -5.072427e-04 -5.466730e-04
-3.221610e-01 -3.549249e-01 -8.712055e-02 -1.254146e-03 -1.254159e-03 -1.021392e-03
2.337621e-01 -1.762485e-01 -1.994410e-01 000000 000000 -1.212641e-03
-1.816100e-01 8.562151e-02 1.736583e-01 3.248337e-04 -1.773777e-04 7.665614e-04
7.734640e-02 -4.918659e-01 2.220105e-02 4.500040e-04 -2.068635e-03 1.582386e-04
2.796051e-01 -1.038037e-01 1.994410e-01 000000 000000 1.339803e-03
2.852794e-01 1.541410e-01 1.979128e-01 1.757205e-04 9.595142e-05 1.324820e-03
4.362786e-01 -1.454724e-01 1.182632e-01 1.453540e-03 -5.421489e-04 1.234012e-03
1.505290e-01 -4.277293e-02 -1.389945e-01 -4.969242e-04 1.081052e-04 -5.466738e-04
-6.580314e-02 7.946917e-02 3.454970e-02 2.713312e-04 -3.624453e-04 1.030773e-04
4.450987e-01 -5.903137e-02 1.326358e-01 1.485417e-03 -1.062423e-04 1.184570e-03
-1.968407e-01 -4.323045e-02 1.741904e-01 3.616351e-04 7.867299e-05 7.665523e-04
4.513307e-01 2.108579e-01 -2.072444e-02 1.866400e-03 1.019123e-03 -1.589570e-04
7.560248e-02 -3.303452e-01 -1.957049e-01 4.655106e-05 -2.139977e-04 -1.449163e-03
-1.620821e-01 -9.437645e-02 1.649997e-01 4.217202e-04 2.302833e-04 7.029688e-04
-7.132741e-02 -2.369012e-01 1.925258e-01 1.122414e-04 3.009270e-04 1.038621e-03
3.193144e-01 1.672220e-01 1.897996e-01 3.800938e-04 2.075445e-04 1.400454e-03
1.621098e-01 -1.289337e-01 1.768514e-01 -2.962867e-04 2.217935e-04 7.665569e-04
2.099189e-01 2.602505e-01 1.964190e-01 1.199822e-04 1.602799e-04 1.324845e-03
-2.916694e-01 -3.069502e-01 1.565907e-01 -7.214876e-04 -7.214876e-04 1.492764e-03
-2.218773e-01 -3.172762e-02 1.848332e-01 4.188584e-04 2.994622e-05 8.697704e-04
1.962910e-01 9.302292e-02 1.815921e-01 -3.248337e-04 -1.773777e-04 7.665595e-04
-9.270107e-02 3.797373e-02 5.104317e-03 3.984800e-04 -1.486401e-04 3.179125e-05
3.876256e-01 2.230767e-01 -1.339631e-01 1.307054e-03 7.137000e-04 -1.184593e-03
2.965895e-01 4.000121e-01 -1.017492e-02 1.274373e-03 1.702363e-03 -1.589764e-04
5.485906e-02 -4.766362e-01 -8.584379e-02 1.360110e-04 -1.901553e-03 -7.463376e-04
2.910458e-01 3.314891e-01 -1.409404e-01 8.711754e-04 8.711754e-04 -1.324395e-03
2.024170e-01 -5.176112e-02 1.776968e-01 -3.616490e-04 7.867602e-05 7.665633e-04
-2.868271e-01 -2.664381e-01 1.769533e-01 -4.881713e-04 -4.881649e-04 1.429915e-03
3.747952e-01 -5.641110e-02 -1.832282e-01 6.746021e-04 -1.467491e-04 -1.429892e-03
-4.732904e-01 1.574287e-01 -3.492896e-03 -1.992430e-03 7.431408e-04 -1.589564e-04
7.802041e-02 2.881738e-01 1.994410e-01 000000 000000 1.212630e-03
9.688671e-02 1.962650e-01 1.824751e-01 -2.012620e-04 -3.685750e-04 8.697817e-04
1.229032e-01 3.318416e-01 -1.918181e-01 1.513424e-04 4.057588e-04 -1.400438e-03
-6.759604e-02 -1.391539e-01 -1.374569e-01 2.132522e-04 3.905371e-04 -4.783350e-04
9.960782e-02 3.145805e-01 -1.971119e-01 6.996694e-05 1.875899e-04 -1.324854e-03
-4.676489e-01 -1.648869e-01 -3.293729e-02 -1.939215e-03 -7.232877e-04 -4.711850e-04
4.324723e-01 -1.915377e-01 -9.863650e-02 1.661809e-03 -6.198244e-04 -1.021405e-03
2.891897e-01 -3.714554e-01 -1.011897e-01 1.029818e-03 -1.375675e-03 -9.896002e-04
-3.586979e-01 1.909529e-01 1.681780e-01 -8.434489e-04 4.605582e-04 1.405941e-03
-3.697706e-01 -2.179213e-01 -1.513779e-01 -1.081317e-03 -5.904514e-04 -1.324418e-03
-4.128685e-01 1.896415e-01 -1.262548e-01 -1.307054e-03 7.137000e-04 -1.184583e-03
3.935107e-01 -8.819633e-02 -1.702767e-01 9.390326e-04 -2.042678e-04 -1.405948e-03
-1.731317e-01 -3.390617e-01 1.820987e-01 -3.547490e-04 -6.496738e-04 1.533126e-03
1.151436e-01 2.344454e-01 1.959082e-01 -8.684438e-05 -1.590458e-04 1.199098e-03
-2.015249e-01 -1.459262e-01 1.931098e-01 2.571124e-04 1.924742e-04 1.038618e-03
-2.421376e-01 -1.295246e-02 -1.911508e-01 3.203586e-04 2.291171e-05 -1.038616e-03
2.122151e-02 1.261530e-01 1.011544e-01 -1.057893e-04 -4.863355e-04 2.866121e-04
-2.175914e-01 -2.245753e-03 1.817541e-01 3.691651e-04 2.640043e-05 7.665655e-04
-3.114700e-02 -4.025633e-01 1.699386e-01 -6.855795e-05 -9.585485e-04 1.405953e-03
2.185065e-01 -2.480777e-01 -1.970562e-01 1.548576e-04 -1.548576e-04 -1.449172e-03
4.875944e-01 3.256052e-02 6.198636e-02 1.944843e-03 1.391022e-04 7.632793e-04
-4.904464e-01 4.387801e-02 4.812855e-02 -2.036857e-03 1.456834e-04 4.649071e-04
-1.060783e-01 1.717088e-01 -1.741962e-01 1.773777e-04 -3.248336e-04 -7.665614e-04
1.922528e-02 1.621469e-01 1.454361e-01 -3.173825e-05 -4.438374e-04 4.783280e-04
6.899118e-03 4.136928e-01 1.635331e-01 7.279284e-05 1.017736e-03 1.492772e-03
